# .PCD v0.7 - Point Cloud Data file format
VERSION 0.7
FIELDS x y z
SIZE 4 4 4
TYPE F F F
COUNT 1 1 1
WIDTH 1258
HEIGHT 1
VIEWPOINT 0 0 0 1 0 0 0
POINTS 1258
DATA ascii
-45.00067429 39.28659677 -24.44018358
-45.00067429 39.28659677 -23.44018358
-46.00067429 40.28659677 -25.44018358
-45.00067429 40.28659677 -26.44018358
-45.00067429 40.28659677 -24.44018358
-46.00067429 41.28659677 -25.44018358
-45.00067429 41.28659677 -26.44018358
-45.00067429 41.28659677 -24.44018358
-46.00067429 41.28659677 -21.44018358
-45.00067429 40.28659677 -21.44018358
-45.00067429 41.28659677 -22.44018358
-45.00067429 41.28659677 -20.44018358
-45.00067429 42.28659677 -25.44018358
-45.00067429 42.28659677 -21.44018358
-45.00067429 15.28659677 -29.44018358
-44.00067429 14.28659677 -29.44018358
-44.00067429 15.28659677 -30.44018358
-45.00067429 15.28659677 -28.44018358
-44.00067429 14.28659677 -28.44018358
-45.00067429 15.28659677 -27.44018358
-44.00067429 14.28659677 -27.44018358
-45.00067429 15.28659677 -26.44018358
-44.00067429 14.28659677 -26.44018358
-45.00067429 15.28659677 -25.44018358
-44.00067429 14.28659677 -25.44018358
-44.00067429 15.28659677 -24.44018358
-45.00067429 16.28659677 -30.44018358
-44.00067429 15.28659677 -30.44018358
-44.00067429 16.28659677 -31.44018358
-45.00067429 16.28659677 -25.44018358
-45.00067429 16.28659677 -24.44018358
-44.00067429 15.28659677 -24.44018358
-44.00067429 16.28659677 -23.44018358
-45.00067429 17.28659677 -31.44018358
-44.00067429 16.28659677 -31.44018358
-44.00067429 17.28659677 -32.44018358
-45.00067429 17.28659677 -30.44018358
-45.00067429 17.28659677 -29.44018358
-45.00067429 17.28659677 -28.44018358
-45.00067429 17.28659677 -27.44018358
-45.00067429 17.28659677 -26.44018358
-45.00067429 17.28659677 -25.44018358
-45.00067429 17.28659677 -24.44018358
-44.00067429 17.28659677 -23.44018358
-45.00067429 18.28659677 -32.44018358
-44.00067429 17.28659677 -32.44018358
-44.00067429 18.28659677 -33.44018358
-45.00067429 18.28659677 -31.44018358
-45.00067429 18.28659677 -30.44018358
-45.00067429 18.28659677 -29.44018358
-45.00067429 18.28659677 -28.44018358
-45.00067429 18.28659677 -27.44018358
-45.00067429 18.28659677 -26.44018358
-45.00067429 18.28659677 -25.44018358
-45.00067429 18.28659677 -24.44018358
-45.00067429 18.28659677 -23.44018358
-44.00067429 17.28659677 -23.44018358
-44.00067429 18.28659677 -22.44018358
-45.00067429 19.28659677 -32.44018358
-44.00067429 19.28659677 -33.44018358
-45.00067429 19.28659677 -31.44018358
-45.00067429 19.28659677 -30.44018358
-45.00067429 19.28659677 -27.44018358
-45.00067429 19.28659677 -26.44018358
-45.00067429 19.28659677 -25.44018358
-45.00067429 19.28659677 -24.44018358
-45.00067429 19.28659677 -23.44018358
-45.00067429 19.28659677 -22.44018358
-44.00067429 18.28659677 -22.44018358
-44.00067429 19.28659677 -21.44018358
-45.00067429 20.28659677 -33.44018358
-44.00067429 19.28659677 -33.44018358
-44.00067429 20.28659677 -34.44018358
-45.00067429 20.28659677 -32.44018358
-45.00067429 20.28659677 -31.44018358
-45.00067429 20.28659677 -26.44018358
-45.00067429 20.28659677 -25.44018358
-45.00067429 20.28659677 -24.44018358
-45.00067429 20.28659677 -23.44018358
-45.00067429 20.28659677 -22.44018358
-45.00067429 20.28659677 -21.44018358
-44.00067429 19.28659677 -21.44018358
-44.00067429 20.28659677 -20.44018358
-45.00067429 21.28659677 -33.44018358
-44.00067429 21.28659677 -34.44018358
-45.00067429 21.28659677 -32.44018358
-45.00067429 21.28659677 -25.44018358
-45.00067429 21.28659677 -24.44018358
-45.00067429 21.28659677 -23.44018358
-45.00067429 21.28659677 -22.44018358
-45.00067429 21.28659677 -21.44018358
-45.00067429 21.28659677 -20.44018358
-44.00067429 20.28659677 -20.44018358
-44.00067429 21.28659677 -19.44018358
-45.00067429 22.28659677 -33.44018358
-44.00067429 22.28659677 -34.44018358
-45.00067429 22.28659677 -32.44018358
-45.00067429 22.28659677 -24.44018358
-45.00067429 22.28659677 -23.44018358
-45.00067429 22.28659677 -22.44018358
-45.00067429 22.28659677 -21.44018358
-45.00067429 22.28659677 -20.44018358
-45.00067429 22.28659677 -19.44018358
-44.00067429 21.28659677 -19.44018358
-44.00067429 22.28659677 -18.44018358
-45.00067429 23.28659677 -33.44018358
-44.00067429 23.28659677 -34.44018358
-45.00067429 23.28659677 -32.44018358
-45.00067429 23.28659677 -24.44018358
-45.00067429 23.28659677 -23.44018358
-45.00067429 23.28659677 -22.44018358
-45.00067429 23.28659677 -21.44018358
-45.00067429 23.28659677 -20.44018358
-45.00067429 23.28659677 -19.44018358
-44.00067429 23.28659677 -18.44018358
-45.00067429 24.28659677 -33.44018358
-44.00067429 24.28659677 -34.44018358
-45.00067429 24.28659677 -32.44018358
-45.00067429 24.28659677 -26.44018358
-45.00067429 24.28659677 -25.44018358
-45.00067429 24.28659677 -24.44018358
-45.00067429 24.28659677 -23.44018358
-45.00067429 24.28659677 -22.44018358
-45.00067429 24.28659677 -21.44018358
-45.00067429 24.28659677 -20.44018358
-45.00067429 24.28659677 -19.44018358
-44.00067429 24.28659677 -18.44018358
-45.00067429 25.28659677 -33.44018358
-44.00067429 25.28659677 -34.44018358
-45.00067429 25.28659677 -32.44018358
-45.00067429 25.28659677 -28.44018358
-45.00067429 25.28659677 -27.44018358
-45.00067429 25.28659677 -26.44018358
-45.00067429 25.28659677 -25.44018358
-45.00067429 25.28659677 -24.44018358
-45.00067429 25.28659677 -23.44018358
-45.00067429 25.28659677 -22.44018358
-45.00067429 25.28659677 -21.44018358
-45.00067429 25.28659677 -20.44018358
-45.00067429 25.28659677 -19.44018358
-45.00067429 25.28659677 -18.44018358
-44.00067429 24.28659677 -18.44018358
-44.00067429 25.28659677 -17.44018358
-45.00067429 26.28659677 -33.44018358
-44.00067429 26.28659677 -34.44018358
-45.00067429 26.28659677 -31.44018358
-45.00067429 26.28659677 -30.44018358
-45.00067429 26.28659677 -29.44018358
-45.00067429 26.28659677 -28.44018358
-45.00067429 26.28659677 -27.44018358
-45.00067429 26.28659677 -26.44018358
-45.00067429 26.28659677 -25.44018358
-45.00067429 26.28659677 -24.44018358
-45.00067429 26.28659677 -23.44018358
-45.00067429 26.28659677 -22.44018358
-45.00067429 26.28659677 -21.44018358
-45.00067429 26.28659677 -20.44018358
-45.00067429 26.28659677 -19.44018358
-45.00067429 26.28659677 -18.44018358
-45.00067429 26.28659677 -17.44018358
-44.00067429 25.28659677 -17.44018358
-44.00067429 26.28659677 -16.44018358
-44.00067429 27.28659677 -34.44018358
-45.00067429 27.28659677 -32.44018358
-45.00067429 27.28659677 -31.44018358
-45.00067429 27.28659677 -30.44018358
-45.00067429 27.28659677 -29.44018358
-45.00067429 27.28659677 -28.44018358
-45.00067429 27.28659677 -27.44018358
-45.00067429 27.28659677 -26.44018358
-45.00067429 27.28659677 -25.44018358
-45.00067429 27.28659677 -24.44018358
-45.00067429 27.28659677 -23.44018358
-45.00067429 27.28659677 -22.44018358
-45.00067429 27.28659677 -21.44018358
-45.00067429 27.28659677 -20.44018358
-45.00067429 27.28659677 -17.44018358
-44.00067429 27.28659677 -16.44018358
-44.00067429 28.28659677 -34.44018358
-45.00067429 28.28659677 -32.44018358
-45.00067429 28.28659677 -31.44018358
-45.00067429 28.28659677 -30.44018358
-45.00067429 28.28659677 -29.44018358
-45.00067429 28.28659677 -28.44018358
-45.00067429 28.28659677 -27.44018358
-45.00067429 28.28659677 -26.44018358
-45.00067429 28.28659677 -25.44018358
-45.00067429 28.28659677 -24.44018358
-45.00067429 28.28659677 -23.44018358
-45.00067429 28.28659677 -22.44018358
-45.00067429 28.28659677 -21.44018358
-45.00067429 28.28659677 -20.44018358
-45.00067429 28.28659677 -19.44018358
-45.00067429 28.28659677 -18.44018358
-45.00067429 28.28659677 -17.44018358
-44.00067429 28.28659677 -16.44018358
-44.00067429 29.28659677 -33.44018358
-45.00067429 29.28659677 -32.44018358
-44.00067429 29.28659677 -33.44018358
-45.00067429 29.28659677 -31.44018358
-45.00067429 29.28659677 -30.44018358
-45.00067429 29.28659677 -29.44018358
-45.00067429 29.28659677 -28.44018358
-45.00067429 29.28659677 -27.44018358
-45.00067429 29.28659677 -26.44018358
-45.00067429 29.28659677 -25.44018358
-45.00067429 29.28659677 -24.44018358
-45.00067429 29.28659677 -23.44018358
-45.00067429 29.28659677 -22.44018358
-45.00067429 29.28659677 -21.44018358
-45.00067429 29.28659677 -20.44018358
-45.00067429 29.28659677 -19.44018358
-45.00067429 29.28659677 -18.44018358
-45.00067429 29.28659677 -17.44018358
-45.00067429 29.28659677 -16.44018358
-44.00067429 28.28659677 -16.44018358
-44.00067429 29.28659677 -15.44018358
-45.00067429 30.28659677 -32.44018358
-44.00067429 30.28659677 -33.44018358
-45.00067429 30.28659677 -31.44018358
-45.00067429 30.28659677 -30.44018358
-45.00067429 30.28659677 -29.44018358
-45.00067429 30.28659677 -28.44018358
-45.00067429 30.28659677 -27.44018358
-45.00067429 30.28659677 -26.44018358
-45.00067429 30.28659677 -25.44018358
-45.00067429 30.28659677 -24.44018358
-45.00067429 30.28659677 -23.44018358
-45.00067429 30.28659677 -22.44018358
-45.00067429 30.28659677 -21.44018358
-45.00067429 30.28659677 -20.44018358
-45.00067429 30.28659677 -19.44018358
-45.00067429 30.28659677 -18.44018358
-45.00067429 30.28659677 -17.44018358
-45.00067429 30.28659677 -16.44018358
-44.00067429 30.28659677 -15.44018358
-45.00067429 31.28659677 -33.44018358
-44.00067429 30.28659677 -33.44018358
-44.00067429 31.28659677 -34.44018358
-45.00067429 31.28659677 -32.44018358
-45.00067429 31.28659677 -31.44018358
-45.00067429 31.28659677 -30.44018358
-45.00067429 31.28659677 -29.44018358
-45.00067429 31.28659677 -28.44018358
-45.00067429 31.28659677 -27.44018358
-45.00067429 31.28659677 -26.44018358
-45.00067429 31.28659677 -25.44018358
-45.00067429 31.28659677 -24.44018358
-45.00067429 31.28659677 -23.44018358
-45.00067429 31.28659677 -22.44018358
-45.00067429 31.28659677 -21.44018358
-45.00067429 31.28659677 -20.44018358
-45.00067429 31.28659677 -19.44018358
-45.00067429 31.28659677 -18.44018358
-45.00067429 31.28659677 -17.44018358
-45.00067429 31.28659677 -16.44018358
-44.00067429 31.28659677 -15.44018358
-45.00067429 32.28659677 -33.44018358
-44.00067429 32.28659677 -34.44018358
-45.00067429 32.28659677 -32.44018358
-45.00067429 32.28659677 -31.44018358
-45.00067429 32.28659677 -30.44018358
-45.00067429 32.28659677 -29.44018358
-45.00067429 32.28659677 -28.44018358
-45.00067429 32.28659677 -27.44018358
-45.00067429 32.28659677 -26.44018358
-45.00067429 32.28659677 -25.44018358
-45.00067429 32.28659677 -24.44018358
-45.00067429 32.28659677 -23.44018358
-45.00067429 32.28659677 -22.44018358
-45.00067429 32.28659677 -21.44018358
-45.00067429 32.28659677 -20.44018358
-45.00067429 32.28659677 -19.44018358
-45.00067429 32.28659677 -18.44018358
-45.00067429 32.28659677 -17.44018358
-45.00067429 32.28659677 -16.44018358
-44.00067429 32.28659677 -15.44018358
-45.00067429 33.28659677 -33.44018358
-44.00067429 33.28659677 -34.44018358
-45.00067429 33.28659677 -32.44018358
-45.00067429 33.28659677 -31.44018358
-45.00067429 33.28659677 -30.44018358
-45.00067429 33.28659677 -29.44018358
-45.00067429 33.28659677 -28.44018358
-45.00067429 33.28659677 -27.44018358
-45.00067429 33.28659677 -26.44018358
-45.00067429 33.28659677 -25.44018358
-45.00067429 33.28659677 -24.44018358
-45.00067429 33.28659677 -23.44018358
-45.00067429 33.28659677 -22.44018358
-45.00067429 33.28659677 -21.44018358
-45.00067429 33.28659677 -20.44018358
-45.00067429 33.28659677 -19.44018358
-45.00067429 33.28659677 -18.44018358
-45.00067429 33.28659677 -17.44018358
-45.00067429 33.28659677 -16.44018358
-44.00067429 33.28659677 -15.44018358
-44.00067429 34.28659677 -33.44018358
-45.00067429 34.28659677 -32.44018358
-44.00067429 34.28659677 -33.44018358
-45.00067429 34.28659677 -31.44018358
-45.00067429 34.28659677 -30.44018358
-45.00067429 34.28659677 -29.44018358
-45.00067429 34.28659677 -28.44018358
-45.00067429 34.28659677 -27.44018358
-45.00067429 34.28659677 -26.44018358
-45.00067429 34.28659677 -25.44018358
-45.00067429 34.28659677 -24.44018358
-45.00067429 34.28659677 -23.44018358
-45.00067429 34.28659677 -22.44018358
-45.00067429 34.28659677 -21.44018358
-45.00067429 34.28659677 -20.44018358
-45.00067429 34.28659677 -19.44018358
-45.00067429 34.28659677 -18.44018358
-45.00067429 34.28659677 -17.44018358
-45.00067429 34.28659677 -16.44018358
-44.00067429 34.28659677 -15.44018358
-44.00067429 35.28659677 -32.44018358
-45.00067429 35.28659677 -31.44018358
-44.00067429 35.28659677 -32.44018358
-45.00067429 35.28659677 -30.44018358
-45.00067429 35.28659677 -29.44018358
-45.00067429 35.28659677 -28.44018358
-45.00067429 35.28659677 -27.44018358
-45.00067429 35.28659677 -26.44018358
-45.00067429 35.28659677 -25.44018358
-45.00067429 35.28659677 -24.44018358
-45.00067429 35.28659677 -23.44018358
-45.00067429 35.28659677 -22.44018358
-45.00067429 35.28659677 -21.44018358
-45.00067429 35.28659677 -20.44018358
-45.00067429 35.28659677 -19.44018358
-45.00067429 35.28659677 -18.44018358
-45.00067429 35.28659677 -17.44018358
-45.00067429 35.28659677 -16.44018358
-44.00067429 35.28659677 -15.44018358
-44.00067429 36.28659677 -31.44018358
-45.00067429 36.28659677 -30.44018358
-44.00067429 36.28659677 -31.44018358
-45.00067429 36.28659677 -29.44018358
-45.00067429 36.28659677 -28.44018358
-45.00067429 36.28659677 -27.44018358
-45.00067429 36.28659677 -26.44018358
-45.00067429 36.28659677 -25.44018358
-45.00067429 36.28659677 -24.44018358
-45.00067429 36.28659677 -23.44018358
-45.00067429 36.28659677 -22.44018358
-45.00067429 36.28659677 -21.44018358
-45.00067429 36.28659677 -20.44018358
-45.00067429 36.28659677 -19.44018358
-45.00067429 36.28659677 -18.44018358
-45.00067429 36.28659677 -17.44018358
-45.00067429 36.28659677 -16.44018358
-44.00067429 36.28659677 -15.44018358
-44.00067429 37.28659677 -30.44018358
-45.00067429 37.28659677 -29.44018358
-44.00067429 37.28659677 -30.44018358
-45.00067429 37.28659677 -28.44018358
-45.00067429 37.28659677 -27.44018358
-45.00067429 37.28659677 -26.44018358
-45.00067429 37.28659677 -25.44018358
-45.00067429 37.28659677 -24.44018358
-45.00067429 37.28659677 -23.44018358
-45.00067429 37.28659677 -22.44018358
-45.00067429 37.28659677 -21.44018358
-45.00067429 37.28659677 -20.44018358
-45.00067429 37.28659677 -19.44018358
-45.00067429 37.28659677 -18.44018358
-45.00067429 37.28659677 -17.44018358
-45.00067429 37.28659677 -16.44018358
-44.00067429 37.28659677 -15.44018358
-44.00067429 38.28659677 -29.44018358
-45.00067429 38.28659677 -28.44018358
-44.00067429 38.28659677 -29.44018358
-45.00067429 38.28659677 -26.44018358
-45.00067429 38.28659677 -25.44018358
-45.00067429 38.28659677 -22.44018358
-45.00067429 38.28659677 -21.44018358
-45.00067429 38.28659677 -20.44018358
-45.00067429 38.28659677 -19.44018358
-45.00067429 38.28659677 -18.44018358
-45.00067429 38.28659677 -17.44018358
-45.00067429 38.28659677 -16.44018358
-44.00067429 38.28659677 -15.44018358
-44.00067429 39.28659677 -28.44018358
-44.00067429 39.28659677 -27.44018358
-45.00067429 39.28659677 -26.44018358
-44.00067429 39.28659677 -27.44018358
-45.00067429 39.28659677 -24.44018358
-45.00067429 39.28659677 -23.44018358
-45.00067429 39.28659677 -22.44018358
-45.00067429 39.28659677 -21.44018358
-45.00067429 39.28659677 -20.44018358
-45.00067429 39.28659677 -19.44018358
-45.00067429 39.28659677 -18.44018358
-45.00067429 39.28659677 -17.44018358
-44.00067429 39.28659677 -16.44018358
-44.00067429 39.28659677 -16.44018358
-45.00067429 39.28659677 -15.44018358
-44.00067429 38.28659677 -15.44018358
-44.00067429 39.28659677 -16.44018358
-44.00067429 39.28659677 -14.44018358
-45.00067429 40.28659677 -26.44018358
-44.00067429 40.28659677 -27.44018358
-45.00067429 40.28659677 -24.44018358
-45.00067429 40.28659677 -23.44018358
-45.00067429 40.28659677 -22.44018358
-45.00067429 40.28659677 -21.44018358
-45.00067429 40.28659677 -20.44018358
-44.00067429 40.28659677 -19.44018358
-44.00067429 40.28659677 -19.44018358
-44.00067429 40.28659677 -18.44018358
-44.00067429 40.28659677 -17.44018358
-45.00067429 40.28659677 -15.44018358
-44.00067429 40.28659677 -16.44018358
-44.00067429 40.28659677 -14.44018358
-44.00067429 41.28659677 -26.44018358
-44.00067429 41.28659677 -26.44018358
-45.00067429 41.28659677 -24.44018358
-45.00067429 41.28659677 -23.44018358
-45.00067429 41.28659677 -22.44018358
-45.00067429 41.28659677 -20.44018358
-44.00067429 41.28659677 -19.44018358
-45.00067429 41.28659677 -15.44018358
-44.00067429 41.28659677 -16.44018358
-44.00067429 41.28659677 -14.44018358
-45.00067429 42.28659677 -25.44018358
-44.00067429 42.28659677 -26.44018358
-44.00067429 42.28659677 -24.44018358
-44.00067429 42.28659677 -24.44018358
-45.00067429 42.28659677 -23.44018358
-44.00067429 42.28659677 -24.44018358
-45.00067429 42.28659677 -22.44018358
-45.00067429 42.28659677 -21.44018358
-44.00067429 42.28659677 -20.44018358
-44.00067429 42.28659677 -20.44018358
-44.00067429 42.28659677 -15.44018358
-45.00067429 43.28659677 -25.44018358
-44.00067429 43.28659677 -26.44018358
-44.00067429 43.28659677 -24.44018358
-44.00067429 43.28659677 -23.44018358
-44.00067429 43.28659677 -22.44018358
-44.00067429 43.28659677 -21.44018358
-44.00067429 44.28659677 -25.44018358
-44.00067429 12.28659677 -28.44018358
-43.00067429 11.28659677 -28.44018358
-43.00067429 12.28659677 -29.44018358
-44.00067429 12.28659677 -27.44018358
-43.00067429 11.28659677 -27.44018358
-44.00067429 12.28659677 -26.44018358
-43.00067429 11.28659677 -26.44018358
-43.00067429 12.28659677 -25.44018358
-44.00067429 13.28659677 -29.44018358
-43.00067429 12.28659677 -29.44018358
-43.00067429 13.28659677 -30.44018358
-44.00067429 13.28659677 -28.44018358
-44.00067429 13.28659677 -27.44018358
-44.00067429 13.28659677 -26.44018358
-44.00067429 13.28659677 -25.44018358
-43.00067429 12.28659677 -25.44018358
-44.00067429 13.28659677 -24.44018358
-43.00067429 12.28659677 -24.44018358
-43.00067429 13.28659677 -23.44018358
-44.00067429 14.28659677 -30.44018358
-43.00067429 13.28659677 -30.44018358
-43.00067429 14.28659677 -31.44018358
-44.00067429 14.28659677 -29.44018358
-44.00067429 14.28659677 -28.44018358
-44.00067429 14.28659677 -27.44018358
-44.00067429 14.28659677 -26.44018358
-44.00067429 14.28659677 -25.44018358
-44.00067429 14.28659677 -24.44018358
-44.00067429 14.28659677 -23.44018358
-43.00067429 13.28659677 -23.44018358
-43.00067429 14.28659677 -22.44018358
-44.00067429 15.28659677 -31.44018358
-43.00067429 14.28659677 -31.44018358
-43.00067429 15.28659677 -32.44018358
-44.00067429 15.28659677 -30.44018358
-44.00067429 15.28659677 -24.44018358
-44.00067429 15.28659677 -23.44018358
-44.00067429 15.28659677 -22.44018358
-43.00067429 14.28659677 -22.44018358
-43.00067429 15.28659677 -21.44018358
-44.00067429 16.28659677 -32.44018358
-43.00067429 15.28659677 -32.44018358
-43.00067429 16.28659677 -33.44018358
-44.00067429 16.28659677 -31.44018358
-44.00067429 16.28659677 -23.44018358
-44.00067429 16.28659677 -22.44018358
-44.00067429 16.28659677 -21.44018358
-43.00067429 15.28659677 -21.44018358
-43.00067429 16.28659677 -20.44018358
-44.00067429 17.28659677 -33.44018358
-43.00067429 16.28659677 -33.44018358
-43.00067429 17.28659677 -34.44018358
-44.00067429 17.28659677 -32.44018358
-44.00067429 17.28659677 -23.44018358
-44.00067429 17.28659677 -22.44018358
-44.00067429 17.28659677 -21.44018358
-44.00067429 17.28659677 -20.44018358
-43.00067429 16.28659677 -20.44018358
-43.00067429 17.28659677 -19.44018358
-44.00067429 18.28659677 -34.44018358
-43.00067429 17.28659677 -34.44018358
-43.00067429 18.28659677 -35.44018358
-44.00067429 18.28659677 -33.44018358
-44.00067429 18.28659677 -22.44018358
-44.00067429 18.28659677 -21.44018358
-44.00067429 18.28659677 -20.44018358
-44.00067429 18.28659677 -19.44018358
-43.00067429 17.28659677 -19.44018358
-43.00067429 18.28659677 -18.44018358
-44.00067429 19.28659677 -34.44018358
-43.00067429 19.28659677 -35.44018358
-44.00067429 19.28659677 -33.44018358
-44.00067429 19.28659677 -21.44018358
-44.00067429 19.28659677 -20.44018358
-44.00067429 19.28659677 -19.44018358
-44.00067429 19.28659677 -18.44018358
-43.00067429 18.28659677 -18.44018358
-43.00067429 19.28659677 -17.44018358
-44.00067429 20.28659677 -34.44018358
-43.00067429 20.28659677 -35.44018358
-44.00067429 20.28659677 -20.44018358
-44.00067429 20.28659677 -19.44018358
-44.00067429 20.28659677 -18.44018358
-44.00067429 20.28659677 -17.44018358
-43.00067429 19.28659677 -17.44018358
-43.00067429 20.28659677 -16.44018358
-44.00067429 21.28659677 -34.44018358
-43.00067429 21.28659677 -35.44018358
-44.00067429 21.28659677 -19.44018358
-44.00067429 21.28659677 -18.44018358
-44.00067429 21.28659677 -17.44018358
-43.00067429 21.28659677 -16.44018358
-44.00067429 22.28659677 -34.44018358
-43.00067429 22.28659677 -35.44018358
-44.00067429 22.28659677 -18.44018358
-44.00067429 22.28659677 -17.44018358
-43.00067429 22.28659677 -16.44018358
-44.00067429 23.28659677 -34.44018358
-43.00067429 23.28659677 -35.44018358
-44.00067429 23.28659677 -18.44018358
-44.00067429 23.28659677 -17.44018358
-43.00067429 23.28659677 -16.44018358
-44.00067429 24.28659677 -34.44018358
-43.00067429 24.28659677 -35.44018358
-44.00067429 24.28659677 -18.44018358
-44.00067429 24.28659677 -17.44018358
-43.00067429 24.28659677 -16.44018358
-44.00067429 25.28659677 -34.44018358
-43.00067429 25.28659677 -35.44018358
-44.00067429 25.28659677 -17.44018358
-44.00067429 25.28659677 -16.44018358
-43.00067429 24.28659677 -16.44018358
-43.00067429 25.28659677 -15.44018358
-44.00067429 26.28659677 -34.44018358
-43.00067429 26.28659677 -35.44018358
-44.00067429 26.28659677 -16.44018358
-43.00067429 26.28659677 -15.44018358
-44.00067429 27.28659677 -34.44018358
-43.00067429 27.28659677 -35.44018358
-44.00067429 27.28659677 -16.44018358
-43.00067429 27.28659677 -15.44018358
-43.00067429 28.28659677 -34.44018358
-43.00067429 28.28659677 -34.44018358
-44.00067429 28.28659677 -16.44018358
-43.00067429 28.28659677 -15.44018358
-44.00067429 29.28659677 -33.44018358
-43.00067429 29.28659677 -34.44018358
-43.00067429 29.28659677 -15.44018358
-44.00067429 30.28659677 -33.44018358
-43.00067429 30.28659677 -34.44018358
-43.00067429 30.28659677 -16.44018358
-43.00067429 30.28659677 -16.44018358
-43.00067429 30.28659677 -16.44018358
-43.00067429 31.28659677 -34.44018358
-43.00067429 31.28659677 -17.44018358
-43.00067429 31.28659677 -17.44018358
-43.00067429 31.28659677 -17.44018358
-43.00067429 31.28659677 -16.44018358
-43.00067429 32.28659677 -34.44018358
-43.00067429 32.28659677 -17.44018358
-43.00067429 32.28659677 -17.44018358
-43.00067429 32.28659677 -16.44018358
-43.00067429 33.28659677 -33.44018358
-43.00067429 33.28659677 -33.44018358
-43.00067429 33.28659677 -32.44018358
-43.00067429 33.28659677 -32.44018358
-43.00067429 33.28659677 -31.44018358
-43.00067429 33.28659677 -31.44018358
-43.00067429 33.28659677 -30.44018358
-43.00067429 33.28659677 -30.44018358
-43.00067429 33.28659677 -29.44018358
-43.00067429 33.28659677 -29.44018358
-43.00067429 33.28659677 -28.44018358
-43.00067429 33.28659677 -28.44018358
-43.00067429 33.28659677 -28.44018358
-43.00067429 33.28659677 -17.44018358
-43.00067429 33.28659677 -17.44018358
-43.00067429 33.28659677 -16.44018358
-43.00067429 34.28659677 -32.44018358
-43.00067429 34.28659677 -31.44018358
-43.00067429 34.28659677 -30.44018358
-43.00067429 34.28659677 -29.44018358
-43.00067429 34.28659677 -28.44018358
-43.00067429 34.28659677 -27.44018358
-43.00067429 34.28659677 -27.44018358
-43.00067429 34.28659677 -27.44018358
-43.00067429 34.28659677 -17.44018358
-43.00067429 34.28659677 -17.44018358
-43.00067429 34.28659677 -16.44018358
-43.00067429 35.28659677 -31.44018358
-43.00067429 35.28659677 -30.44018358
-43.00067429 35.28659677 -29.44018358
-43.00067429 35.28659677 -28.44018358
-43.00067429 34.28659677 -27.44018358
-43.00067429 35.28659677 -28.44018358
-43.00067429 35.28659677 -17.44018358
-43.00067429 35.28659677 -17.44018358
-43.00067429 35.28659677 -16.44018358
-43.00067429 36.28659677 -30.44018358
-43.00067429 36.28659677 -29.44018358
-43.00067429 36.28659677 -28.44018358
-43.00067429 36.28659677 -28.44018358
-43.00067429 36.28659677 -17.44018358
-43.00067429 36.28659677 -17.44018358
-43.00067429 36.28659677 -16.44018358
-43.00067429 37.28659677 -29.44018358
-43.00067429 36.28659677 -28.44018358
-43.00067429 37.28659677 -29.44018358
-43.00067429 37.28659677 -17.44018358
-43.00067429 37.28659677 -17.44018358
-43.00067429 37.28659677 -16.44018358
-43.00067429 38.28659677 -29.44018358
-43.00067429 38.28659677 -18.44018358
-43.00067429 38.28659677 -18.44018358
-43.00067429 38.28659677 -18.44018358
-43.00067429 38.28659677 -17.44018358
-43.00067429 38.28659677 -16.44018358
-43.00067429 39.28659677 -28.44018358
-44.00067429 39.28659677 -27.44018358
-43.00067429 39.28659677 -28.44018358
-43.00067429 38.28659677 -18.44018358
-43.00067429 38.28659677 -17.44018358
-44.00067429 39.28659677 -16.44018358
-43.00067429 38.28659677 -16.44018358
-43.00067429 38.28659677 -15.44018358
-43.00067429 39.28659677 -14.44018358
-44.00067429 40.28659677 -27.44018358
-43.00067429 40.28659677 -28.44018358
-44.00067429 40.28659677 -19.44018358
-44.00067429 40.28659677 -18.44018358
-44.00067429 40.28659677 -17.44018358
-44.00067429 40.28659677 -16.44018358
-43.00067429 40.28659677 -14.44018358
-43.00067429 41.28659677 -27.44018358
-44.00067429 41.28659677 -26.44018358
-43.00067429 41.28659677 -27.44018358
-44.00067429 41.28659677 -19.44018358
-43.00067429 41.28659677 -18.44018358
-43.00067429 41.28659677 -18.44018358
-43.00067429 41.28659677 -17.44018358
-44.00067429 41.28659677 -16.44018358
-43.00067429 41.28659677 -17.44018358
-43.00067429 41.28659677 -14.44018358
-43.00067429 42.28659677 -26.44018358
-43.00067429 42.28659677 -26.44018358
-44.00067429 42.28659677 -24.44018358
-44.00067429 42.28659677 -20.44018358
-43.00067429 42.28659677 -19.44018358
-43.00067429 42.28659677 -19.44018358
-43.00067429 42.28659677 -16.44018358
-44.00067429 42.28659677 -15.44018358
-43.00067429 42.28659677 -16.44018358
-43.00067429 42.28659677 -14.44018358
-43.00067429 43.28659677 -25.44018358
-43.00067429 43.28659677 -25.44018358
-44.00067429 43.28659677 -24.44018358
-43.00067429 43.28659677 -25.44018358
-44.00067429 43.28659677 -23.44018358
-44.00067429 43.28659677 -22.44018358
-43.00067429 43.28659677 -21.44018358
-43.00067429 43.28659677 -21.44018358
-43.00067429 43.28659677 -20.44018358
-44.00067429 43.28659677 -15.44018358
-43.00067429 43.28659677 -16.44018358
-43.00067429 43.28659677 -14.44018358
-43.00067429 44.28659677 -24.44018358
-43.00067429 44.28659677 -23.44018358
-43.00067429 44.28659677 -22.44018358
-43.00067429 44.28659677 -15.44018358
-44.00067429 46.28659677 -21.44018358
-43.00067429 45.28659677 -21.44018358
-43.00067429 46.28659677 -22.44018358
-43.00067429 46.28659677 -20.44018358
-44.00067429 47.28659677 -21.44018358
-43.00067429 47.28659677 -22.44018358
-43.00067429 47.28659677 -20.44018358
-43.00067429 48.28659677 -21.44018358
-43.00067429 9.286596772 -28.44018358
-42.00067429 8.286596772 -28.44018358
-42.00067429 9.286596772 -29.44018358
-43.00067429 9.286596772 -27.44018358
-42.00067429 8.286596772 -27.44018358
-43.00067429 9.286596772 -26.44018358
-42.00067429 8.286596772 -26.44018358
-42.00067429 9.286596772 -25.44018358
-43.00067429 10.28659677 -30.44018358
-42.00067429 9.286596772 -30.44018358
-42.00067429 10.28659677 -31.44018358
-43.00067429 10.28659677 -29.44018358
-42.00067429 9.286596772 -29.44018358
-43.00067429 10.28659677 -28.44018358
-43.00067429 10.28659677 -27.44018358
-43.00067429 10.28659677 -26.44018358
-43.00067429 10.28659677 -25.44018358
-42.00067429 9.286596772 -25.44018358
-43.00067429 10.28659677 -24.44018358
-42.00067429 9.286596772 -24.44018358
-43.00067429 10.28659677 -23.44018358
-42.00067429 9.286596772 -23.44018358
-42.00067429 10.28659677 -22.44018358
-43.00067429 11.28659677 -31.44018358
-42.00067429 10.28659677 -31.44018358
-42.00067429 11.28659677 -32.44018358
-43.00067429 11.28659677 -30.44018358
-43.00067429 11.28659677 -29.44018358
-43.00067429 11.28659677 -28.44018358
-43.00067429 11.28659677 -27.44018358
-43.00067429 11.28659677 -26.44018358
-43.00067429 11.28659677 -25.44018358
-43.00067429 11.28659677 -24.44018358
-43.00067429 11.28659677 -23.44018358
-43.00067429 11.28659677 -22.44018358
-42.00067429 10.28659677 -22.44018358
-42.00067429 11.28659677 -21.44018358
-43.00067429 12.28659677 -32.44018358
-42.00067429 11.28659677 -32.44018358
-42.00067429 12.28659677 -33.44018358
-43.00067429 12.28659677 -31.44018358
-43.00067429 12.28659677 -30.44018358
-43.00067429 12.28659677 -29.44018358
-43.00067429 12.28659677 -25.44018358
-43.00067429 12.28659677 -24.44018358
-43.00067429 12.28659677 -23.44018358
-43.00067429 12.28659677 -22.44018358
-43.00067429 12.28659677 -21.44018358
-42.00067429 11.28659677 -21.44018358
-42.00067429 12.28659677 -20.44018358
-43.00067429 13.28659677 -32.44018358
-42.00067429 13.28659677 -33.44018358
-43.00067429 13.28659677 -31.44018358
-43.00067429 13.28659677 -30.44018358
-43.00067429 13.28659677 -23.44018358
-43.00067429 13.28659677 -22.44018358
-43.00067429 13.28659677 -21.44018358
-43.00067429 13.28659677 -20.44018358
-42.00067429 12.28659677 -20.44018358
-42.00067429 13.28659677 -19.44018358
-43.00067429 14.28659677 -33.44018358
-42.00067429 13.28659677 -33.44018358
-42.00067429 14.28659677 -34.44018358
-43.00067429 14.28659677 -32.44018358
-43.00067429 14.28659677 -31.44018358
-43.00067429 14.28659677 -22.44018358
-43.00067429 14.28659677 -21.44018358
-43.00067429 14.28659677 -20.44018358
-43.00067429 14.28659677 -19.44018358
-42.00067429 13.28659677 -19.44018358
-42.00067429 14.28659677 -18.44018358
-43.00067429 15.28659677 -34.44018358
-42.00067429 14.28659677 -34.44018358
-42.00067429 15.28659677 -35.44018358
-43.00067429 15.28659677 -33.44018358
-43.00067429 15.28659677 -32.44018358
-43.00067429 15.28659677 -21.44018358
-43.00067429 15.28659677 -20.44018358
-43.00067429 15.28659677 -19.44018358
-43.00067429 15.28659677 -18.44018358
-42.00067429 14.28659677 -18.44018358
-42.00067429 15.28659677 -17.44018358
-43.00067429 16.28659677 -34.44018358
-42.00067429 16.28659677 -35.44018358
-43.00067429 16.28659677 -33.44018358
-43.00067429 16.28659677 -20.44018358
-43.00067429 16.28659677 -19.44018358
-43.00067429 16.28659677 -18.44018358
-42.00067429 16.28659677 -17.44018358
-43.00067429 17.28659677 -35.44018358
-42.00067429 16.28659677 -35.44018358
-42.00067429 17.28659677 -36.44018358
-43.00067429 17.28659677 -34.44018358
-43.00067429 17.28659677 -19.44018358
-43.00067429 17.28659677 -18.44018358
-43.00067429 17.28659677 -17.44018358
-42.00067429 16.28659677 -17.44018358
-42.00067429 17.28659677 -16.44018358
-43.00067429 18.28659677 -35.44018358
-42.00067429 18.28659677 -36.44018358
-43.00067429 18.28659677 -18.44018358
-43.00067429 18.28659677 -17.44018358
-43.00067429 18.28659677 -16.44018358
-42.00067429 17.28659677 -16.44018358
-42.00067429 18.28659677 -15.44018358
-43.00067429 19.28659677 -35.44018358
-42.00067429 19.28659677 -36.44018358
-43.00067429 19.28659677 -17.44018358
-43.00067429 19.28659677 -16.44018358
-43.00067429 19.28659677 -15.44018358
-42.00067429 18.28659677 -15.44018358
-42.00067429 19.28659677 -14.44018358
-43.00067429 20.28659677 -35.44018358
-42.00067429 20.28659677 -36.44018358
-43.00067429 20.28659677 -16.44018358
-43.00067429 20.28659677 -15.44018358
-42.00067429 20.28659677 -14.44018358
-43.00067429 21.28659677 -35.44018358
-42.00067429 21.28659677 -36.44018358
-43.00067429 21.28659677 -16.44018358
-43.00067429 21.28659677 -15.44018358
-42.00067429 21.28659677 -14.44018358
-43.00067429 22.28659677 -35.44018358
-42.00067429 22.28659677 -36.44018358
-43.00067429 22.28659677 -16.44018358
-43.00067429 22.28659677 -15.44018358
-42.00067429 22.28659677 -14.44018358
-43.00067429 23.28659677 -35.44018358
-42.00067429 23.28659677 -36.44018358
-43.00067429 23.28659677 -16.44018358
-43.00067429 23.28659677 -15.44018358
-43.00067429 23.28659677 -14.44018358
-42.00067429 22.28659677 -14.44018358
-42.00067429 23.28659677 -13.44018358
-43.00067429 24.28659677 -35.44018358
-42.00067429 24.28659677 -36.44018358
-43.00067429 24.28659677 -16.44018358
-43.00067429 24.28659677 -15.44018358
-43.00067429 24.28659677 -14.44018358
-42.00067429 24.28659677 -13.44018358
-43.00067429 25.28659677 -35.44018358
-42.00067429 25.28659677 -36.44018358
-43.00067429 25.28659677 -15.44018358
-43.00067429 25.28659677 -14.44018358
-42.00067429 25.28659677 -13.44018358
-43.00067429 26.28659677 -35.44018358
-42.00067429 26.28659677 -36.44018358
-43.00067429 26.28659677 -15.44018358
-43.00067429 26.28659677 -14.44018358
-42.00067429 26.28659677 -13.44018358
-42.00067429 27.28659677 -35.44018358
-42.00067429 27.28659677 -35.44018358
-43.00067429 27.28659677 -15.44018358
-43.00067429 27.28659677 -14.44018358
-42.00067429 27.28659677 -13.44018358
-43.00067429 28.28659677 -34.44018358
-42.00067429 28.28659677 -35.44018358
-43.00067429 28.28659677 -15.44018358
-43.00067429 28.28659677 -14.44018358
-42.00067429 28.28659677 -13.44018358
-43.00067429 29.28659677 -34.44018358
-42.00067429 29.28659677 -35.44018358
-43.00067429 29.28659677 -15.44018358
-43.00067429 29.28659677 -14.44018358
-42.00067429 29.28659677 -13.44018358
-43.00067429 30.28659677 -34.44018358
-42.00067429 30.28659677 -35.44018358
-43.00067429 30.28659677 -16.44018358
-43.00067429 30.28659677 -15.44018358
-43.00067429 30.28659677 -14.44018358
-42.00067429 30.28659677 -13.44018358
-43.00067429 31.28659677 -34.44018358
-42.00067429 31.28659677 -35.44018358
-43.00067429 31.28659677 -17.44018358
-43.00067429 31.28659677 -16.44018358
-43.00067429 31.28659677 -15.44018358
-42.00067429 31.28659677 -14.44018358
-42.00067429 31.28659677 -14.44018358
-42.00067429 32.28659677 -34.44018358
-42.00067429 32.28659677 -34.44018358
-43.00067429 32.28659677 -17.44018358
-43.00067429 32.28659677 -16.44018358
-43.00067429 32.28659677 -15.44018358
-42.00067429 32.28659677 -14.44018358
-43.00067429 33.28659677 -33.44018358
-42.00067429 33.28659677 -34.44018358
-43.00067429 33.28659677 -32.44018358
-43.00067429 33.28659677 -31.44018358
-43.00067429 33.28659677 -30.44018358
-43.00067429 33.28659677 -29.44018358
-43.00067429 33.28659677 -28.44018358
-43.00067429 33.28659677 -17.44018358
-43.00067429 33.28659677 -16.44018358
-42.00067429 33.28659677 -15.44018358
-42.00067429 33.28659677 -15.44018358
-42.00067429 34.28659677 -33.44018358
-43.00067429 34.28659677 -32.44018358
-42.00067429 34.28659677 -33.44018358
-43.00067429 34.28659677 -31.44018358
-43.00067429 34.28659677 -30.44018358
-43.00067429 34.28659677 -29.44018358
-43.00067429 34.28659677 -28.44018358
-43.00067429 34.28659677 -27.44018358
-43.00067429 34.28659677 -17.44018358
-43.00067429 34.28659677 -16.44018358
-42.00067429 34.28659677 -15.44018358
-42.00067429 35.28659677 -32.44018358
-42.00067429 35.28659677 -31.44018358
-43.00067429 35.28659677 -30.44018358
-42.00067429 35.28659677 -31.44018358
-43.00067429 35.28659677 -29.44018358
-43.00067429 35.28659677 -28.44018358
-43.00067429 35.28659677 -17.44018358
-43.00067429 35.28659677 -16.44018358
-42.00067429 35.28659677 -15.44018358
-42.00067429 36.28659677 -30.44018358
-43.00067429 36.28659677 -29.44018358
-42.00067429 36.28659677 -30.44018358
-43.00067429 36.28659677 -28.44018358
-43.00067429 36.28659677 -17.44018358
-43.00067429 36.28659677 -16.44018358
-43.00067429 36.28659677 -15.44018358
-42.00067429 35.28659677 -15.44018358
-42.00067429 36.28659677 -14.44018358
-43.00067429 37.28659677 -29.44018358
-42.00067429 37.28659677 -30.44018358
-43.00067429 37.28659677 -17.44018358
-43.00067429 37.28659677 -16.44018358
-43.00067429 37.28659677 -15.44018358
-42.00067429 37.28659677 -14.44018358
-43.00067429 38.28659677 -29.44018358
-42.00067429 38.28659677 -30.44018358
-43.00067429 38.28659677 -18.44018358
-43.00067429 38.28659677 -17.44018358
-43.00067429 38.28659677 -16.44018358
-43.00067429 38.28659677 -15.44018358
-43.00067429 38.28659677 -14.44018358
-42.00067429 37.28659677 -14.44018358
-42.00067429 38.28659677 -13.44018358
-42.00067429 39.28659677 -29.44018358
-43.00067429 39.28659677 -28.44018358
-42.00067429 39.28659677 -29.44018358
-43.00067429 39.28659677 -14.44018358
-42.00067429 39.28659677 -13.44018358
-43.00067429 40.28659677 -28.44018358
-42.00067429 40.28659677 -29.44018358
-43.00067429 40.28659677 -14.44018358
-42.00067429 40.28659677 -13.44018358
-42.00067429 41.28659677 -28.44018358
-43.00067429 41.28659677 -27.44018358
-42.00067429 41.28659677 -28.44018358
-43.00067429 41.28659677 -18.44018358
-43.00067429 41.28659677 -17.44018358
-43.00067429 41.28659677 -14.44018358
-42.00067429 41.28659677 -13.44018358
-42.00067429 42.28659677 -27.44018358
-43.00067429 42.28659677 -26.44018358
-42.00067429 42.28659677 -27.44018358
-43.00067429 42.28659677 -19.44018358
-43.00067429 42.28659677 -18.44018358
-43.00067429 42.28659677 -17.44018358
-43.00067429 42.28659677 -16.44018358
-42.00067429 42.28659677 -14.44018358
-42.00067429 42.28659677 -14.44018358
-43.00067429 43.28659677 -26.44018358
-42.00067429 43.28659677 -27.44018358
-43.00067429 43.28659677 -25.44018358
-43.00067429 43.28659677 -21.44018358
-43.00067429 43.28659677 -20.44018358
-43.00067429 43.28659677 -19.44018358
-43.00067429 43.28659677 -18.44018358
-43.00067429 43.28659677 -17.44018358
-43.00067429 43.28659677 -16.44018358
-42.00067429 43.28659677 -15.44018358
-42.00067429 43.28659677 -15.44018358
-42.00067429 43.28659677 -15.44018358
-42.00067429 44.28659677 -26.44018358
-43.00067429 44.28659677 -25.44018358
-42.00067429 44.28659677 -26.44018358
-43.00067429 44.28659677 -24.44018358
-43.00067429 44.28659677 -23.44018358
-43.00067429 44.28659677 -22.44018358
-43.00067429 44.28659677 -21.44018358
-43.00067429 44.28659677 -20.44018358
-43.00067429 44.28659677 -19.44018358
-42.00067429 44.28659677 -18.44018358
-42.00067429 44.28659677 -18.44018358
-42.00067429 44.28659677 -17.44018358
-42.00067429 44.28659677 -16.44018358
-42.00067429 45.28659677 -25.44018358
-42.00067429 45.28659677 -24.44018358
-42.00067429 45.28659677 -23.44018358
-42.00067429 45.28659677 -22.44018358
-42.00067429 45.28659677 -21.44018358
-43.00067429 45.28659677 -20.44018358
-42.00067429 45.28659677 -21.44018358
-42.00067429 45.28659677 -19.44018358
-42.00067429 45.28659677 -19.44018358
-42.00067429 46.28659677 -21.44018358
-42.00067429 46.28659677 -20.44018358
-42.00067429 47.28659677 -21.44018358
-42.00067429 1.286596772 -31.44018358
-41.00067429 0.2865967721 -31.44018358
-41.00067429 1.286596772 -32.44018358
-41.00067429 1.286596772 -30.44018358
-42.00067429 2.286596772 -31.44018358
-41.00067429 2.286596772 -32.44018358
-41.00067429 2.286596772 -30.44018358
-42.00067429 3.286596772 -31.44018358
-41.00067429 3.286596772 -32.44018358
-42.00067429 3.286596772 -30.44018358
-41.00067429 2.286596772 -30.44018358
-41.00067429 3.286596772 -29.44018358
-42.00067429 4.286596772 -31.44018358
-41.00067429 4.286596772 -32.44018358
-42.00067429 4.286596772 -30.44018358
-41.00067429 4.286596772 -29.44018358
-41.00067429 5.286596772 -31.44018358
-42.00067429 5.286596772 -30.44018358
-41.00067429 5.286596772 -31.44018358
-42.00067429 5.286596772 -29.44018358
-41.00067429 4.286596772 -29.44018358
-42.00067429 5.286596772 -28.44018358
-41.00067429 4.286596772 -28.44018358
-42.00067429 5.286596772 -27.44018358
-41.00067429 4.286596772 -27.44018358
-41.00067429 5.286596772 -26.44018358
-42.00067429 6.286596772 -31.44018358
-41.00067429 5.286596772 -31.44018358
-41.00067429 6.286596772 -32.44018358
-42.00067429 6.286596772 -30.44018358
-42.00067429 6.286596772 -29.44018358
-42.00067429 6.286596772 -28.44018358
-42.00067429 6.286596772 -27.44018358
-42.00067429 6.286596772 -26.44018358
-41.00067429 5.286596772 -26.44018358
-42.00067429 6.286596772 -25.44018358
-41.00067429 5.286596772 -25.44018358
-42.00067429 6.286596772 -24.44018358
-41.00067429 5.286596772 -24.44018358
-41.00067429 6.286596772 -23.44018358
-42.00067429 7.286596772 -32.44018358
-41.00067429 6.286596772 -32.44018358
-41.00067429 7.286596772 -33.44018358
-42.00067429 7.286596772 -31.44018358
-42.00067429 7.286596772 -30.44018358
-42.00067429 7.286596772 -29.44018358
-42.00067429 7.286596772 -28.44018358
-42.00067429 7.286596772 -27.44018358
-42.00067429 7.286596772 -26.44018358
-42.00067429 7.286596772 -25.44018358
-42.00067429 7.286596772 -24.44018358
-42.00067429 7.286596772 -23.44018358
-41.00067429 6.286596772 -23.44018358
-42.00067429 7.286596772 -22.44018358
-41.00067429 6.286596772 -22.44018358
-41.00067429 7.286596772 -21.44018358
-42.00067429 8.286596772 -33.44018358
-41.00067429 7.286596772 -33.44018358
-41.00067429 8.286596772 -34.44018358
-42.00067429 8.286596772 -32.44018358
-42.00067429 8.286596772 -31.44018358
-42.00067429 8.286596772 -30.44018358
-42.00067429 8.286596772 -29.44018358
-42.00067429 8.286596772 -28.44018358
-42.00067429 8.286596772 -27.44018358
-42.00067429 8.286596772 -26.44018358
-42.00067429 8.286596772 -25.44018358
-42.00067429 8.286596772 -24.44018358
-42.00067429 8.286596772 -23.44018358
-42.00067429 8.286596772 -22.44018358
-42.00067429 8.286596772 -21.44018358
-41.00067429 7.286596772 -21.44018358
-42.00067429 8.286596772 -20.44018358
-41.00067429 7.286596772 -20.44018358
-41.00067429 8.286596772 -19.44018358
-42.00067429 9.286596772 -33.44018358
-41.00067429 9.286596772 -34.44018358
-42.00067429 9.286596772 -32.44018358
-42.00067429 9.286596772 -31.44018358
-42.00067429 9.286596772 -30.44018358
-42.00067429 9.286596772 -29.44018358
-42.00067429 9.286596772 -25.44018358
-42.00067429 9.286596772 -24.44018358
-42.00067429 9.286596772 -23.44018358
-42.00067429 9.286596772 -22.44018358
-42.00067429 9.286596772 -21.44018358
-42.00067429 9.286596772 -20.44018358
-42.00067429 9.286596772 -19.44018358
-41.00067429 8.286596772 -19.44018358
-41.00067429 9.286596772 -18.44018358
-42.00067429 10.28659677 -34.44018358
-41.00067429 9.286596772 -34.44018358
-41.00067429 10.28659677 -35.44018358
-42.00067429 10.28659677 -33.44018358
-42.00067429 10.28659677 -32.44018358
-42.00067429 10.28659677 -31.44018358
-42.00067429 10.28659677 -22.44018358
-42.00067429 10.28659677 -21.44018358
-42.00067429 10.28659677 -20.44018358
-42.00067429 10.28659677 -19.44018358
-41.00067429 10.28659677 -18.44018358
-42.00067429 11.28659677 -34.44018358
-41.00067429 11.28659677 -35.44018358
-42.00067429 11.28659677 -33.44018358
-42.00067429 11.28659677 -32.44018358
-42.00067429 11.28659677 -21.44018358
-42.00067429 11.28659677 -20.44018358
-42.00067429 11.28659677 -19.44018358
-42.00067429 11.28659677 -18.44018358
-41.00067429 10.28659677 -18.44018358
-41.00067429 11.28659677 -17.44018358
-42.00067429 12.28659677 -34.44018358
-41.00067429 12.28659677 -35.44018358
-42.00067429 12.28659677 -33.44018358
-42.00067429 12.28659677 -20.44018358
-42.00067429 12.28659677 -19.44018358
-42.00067429 12.28659677 -18.44018358
-42.00067429 12.28659677 -17.44018358
-41.00067429 11.28659677 -17.44018358
-41.00067429 12.28659677 -16.44018358
-42.00067429 13.28659677 -34.44018358
-41.00067429 13.28659677 -35.44018358
-42.00067429 13.28659677 -33.44018358
-42.00067429 13.28659677 -19.44018358
-42.00067429 13.28659677 -18.44018358
-42.00067429 13.28659677 -17.44018358
-41.00067429 13.28659677 -16.44018358
-42.00067429 14.28659677 -35.44018358
-41.00067429 13.28659677 -35.44018358
-41.00067429 14.28659677 -36.44018358
-42.00067429 14.28659677 -34.44018358
-42.00067429 14.28659677 -18.44018358
-42.00067429 14.28659677 -17.44018358
-42.00067429 14.28659677 -16.44018358
-41.00067429 13.28659677 -16.44018358
-41.00067429 14.28659677 -15.44018358
-42.00067429 15.28659677 -35.44018358
-41.00067429 15.28659677 -36.44018358
-42.00067429 15.28659677 -17.44018358
-42.00067429 15.28659677 -16.44018358
-42.00067429 15.28659677 -15.44018358
-41.00067429 14.28659677 -15.44018358
-41.00067429 15.28659677 -14.44018358
-42.00067429 16.28659677 -36.44018358
-41.00067429 15.28659677 -36.44018358
-41.00067429 16.28659677 -37.44018358
-42.00067429 16.28659677 -35.44018358
-42.00067429 16.28659677 -17.44018358
-42.00067429 16.28659677 -16.44018358
-42.00067429 16.28659677 -15.44018358
-41.00067429 16.28659677 -14.44018358
-42.00067429 17.28659677 -36.44018358
-41.00067429 17.28659677 -37.44018358
-42.00067429 17.28659677 -16.44018358
-42.00067429 17.28659677 -15.44018358
-42.00067429 17.28659677 -14.44018358
-41.00067429 16.28659677 -14.44018358
-41.00067429 17.28659677 -13.44018358
-42.00067429 18.28659677 -36.44018358
-41.00067429 18.28659677 -37.44018358
-42.00067429 18.28659677 -15.44018358
-42.00067429 18.28659677 -14.44018358
-41.00067429 18.28659677 -13.44018358
-42.00067429 19.28659677 -36.44018358
-41.00067429 19.28659677 -37.44018358
-42.00067429 19.28659677 -14.44018358
-42.00067429 19.28659677 -13.44018358
-41.00067429 18.28659677 -13.44018358
-41.00067429 19.28659677 -12.44018358
-42.00067429 20.28659677 -36.44018358
-41.00067429 20.28659677 -37.44018358
-42.00067429 20.28659677 -14.44018358
-42.00067429 20.28659677 -13.44018358
-41.00067429 20.28659677 -12.44018358
-42.00067429 21.28659677 -36.44018358
-41.00067429 21.28659677 -37.44018358
-42.00067429 21.28659677 -14.44018358
-42.00067429 21.28659677 -13.44018358
-41.00067429 21.28659677 -12.44018358
-42.00067429 22.28659677 -36.44018358
-41.00067429 22.28659677 -37.44018358
-42.00067429 22.28659677 -14.44018358
-42.00067429 22.28659677 -13.44018358
-41.00067429 22.28659677 -12.44018358
-42.00067429 23.28659677 -36.44018358
-41.00067429 23.28659677 -37.44018358
-42.00067429 23.28659677 -13.44018358
-42.00067429 23.28659677 -12.44018358
-41.00067429 22.28659677 -12.44018358
-41.00067429 23.28659677 -11.44018358
-42.00067429 24.28659677 -36.44018358
-41.00067429 24.28659677 -37.44018358
-42.00067429 24.28659677 -13.44018358
-42.00067429 24.28659677 -12.44018358
-41.00067429 24.28659677 -11.44018358
-42.00067429 25.28659677 -36.44018358
-41.00067429 25.28659677 -37.44018358
-42.00067429 25.28659677 -13.44018358
-42.00067429 25.28659677 -12.44018358
-41.00067429 25.28659677 -11.44018358
-41.00067429 26.28659677 -36.44018358
-41.00067429 26.28659677 -36.44018358
-42.00067429 26.28659677 -13.44018358
-42.00067429 26.28659677 -12.44018358
-41.00067429 26.28659677 -11.44018358
-42.00067429 27.28659677 -35.44018358
-41.00067429 27.28659677 -36.44018358
-42.00067429 27.28659677 -13.44018358
-42.00067429 27.28659677 -12.44018358
-41.00067429 27.28659677 -11.44018358
-42.00067429 28.28659677 -35.44018358
-41.00067429 28.28659677 -36.44018358
-42.00067429 28.28659677 -13.44018358
-42.00067429 28.28659677 -12.44018358
-41.00067429 28.28659677 -11.44018358
-41.00067429 29.28659677 -35.44018358
-41.00067429 29.28659677 -35.44018358
-42.00067429 29.28659677 -13.44018358
-42.00067429 29.28659677 -12.44018358
-41.00067429 29.28659677 -11.44018358
-41.00067429 30.28659677 -35.44018358
-42.00067429 30.28659677 -13.44018358
-42.00067429 30.28659677 -12.44018358
-41.00067429 30.28659677 -11.44018358
-41.00067429 31.28659677 -35.44018358
-42.00067429 31.28659677 -14.44018358
-42.00067429 31.28659677 -13.44018358
-42.00067429 31.28659677 -12.44018358
-41.00067429 31.28659677 -11.44018358
-42.00067429 32.28659677 -34.44018358
-41.00067429 32.28659677 -35.44018358
-42.00067429 32.28659677 -14.44018358
-42.00067429 32.28659677 -13.44018358
-41.00067429 32.28659677 -12.44018358
-41.00067429 32.28659677 -12.44018358
-42.00067429 33.28659677 -34.44018358
-41.00067429 33.28659677 -35.44018358
-42.00067429 33.28659677 -15.44018358
-42.00067429 33.28659677 -14.44018358
-42.00067429 33.28659677 -13.44018358
-41.00067429 33.28659677 -12.44018358
-41.00067429 34.28659677 -34.44018358
-42.00067429 34.28659677 -33.44018358
-41.00067429 34.28659677 -34.44018358
-42.00067429 34.28659677 -15.44018358
-42.00067429 34.28659677 -14.44018358
-42.00067429 34.28659677 -13.44018358
-41.00067429 34.28659677 -12.44018358
-41.00067429 35.28659677 -33.44018358
-42.00067429 35.28659677 -32.44018358
-41.00067429 35.28659677 -33.44018358
-42.00067429 35.28659677 -31.44018358
-42.00067429 35.28659677 -15.44018358
-42.00067429 35.28659677 -14.44018358
-42.00067429 35.28659677 -13.44018358
-41.00067429 35.28659677 -12.44018358
