# .PCD v0.7 - Point Cloud Data file format
VERSION 0.7
FIELDS x y z
SIZE 4 4 4
TYPE F F F
COUNT 1 1 1
WIDTH 1246
HEIGHT 1
VIEWPOINT 0 0 0 1 0 0 0
POINTS 1246
DATA ascii
-20.73530156 18.94129059 -26.59367356
-21.73530156 18.94129059 -25.59367356
-20.73530156 18.94129059 -26.59367356
-21.73530156 18.94129059 -24.59367356
-21.73530156 18.94129059 5.406326445
-20.73530156 18.94129059 6.406326445
-21.73530156 19.94129059 -25.59367356
-20.73530156 19.94129059 -26.59367356
-21.73530156 19.94129059 -24.59367356
-21.73530156 19.94129059 5.406326445
-20.73530156 19.94129059 6.406326445
-21.73530156 20.94129059 -25.59367356
-20.73530156 20.94129059 -26.59367356
-21.73530156 20.94129059 -24.59367356
-21.73530156 20.94129059 4.406326445
-20.73530156 20.94129059 5.406326445
-20.73530156 20.94129059 5.406326445
-20.73530156 21.94129059 -25.59367356
-21.73530156 21.94129059 -24.59367356
-20.73530156 21.94129059 -25.59367356
-21.73530156 21.94129059 4.406326445
-20.73530156 21.94129059 5.406326445
-21.73530156 22.94129059 -24.59367356
-20.73530156 22.94129059 -25.59367356
-21.73530156 22.94129059 -23.59367356
-21.73530156 22.94129059 4.406326445
-20.73530156 22.94129059 5.406326445
-21.73530156 23.94129059 -24.59367356
-20.73530156 23.94129059 -25.59367356
-21.73530156 23.94129059 -23.59367356
-20.73530156 23.94129059 4.406326445
-20.73530156 23.94129059 4.406326445
-20.73530156 24.94129059 -24.59367356
-21.73530156 24.94129059 -23.59367356
-20.73530156 24.94129059 -24.59367356
-21.73530156 24.94129059 3.406326445
-20.73530156 24.94129059 4.406326445
-21.73530156 25.94129059 -23.59367356
-20.73530156 25.94129059 -24.59367356
-21.73530156 25.94129059 -22.59367356
-20.73530156 25.94129059 3.406326445
-20.73530156 25.94129059 3.406326445
-20.73530156 26.94129059 -23.59367356
-21.73530156 26.94129059 -22.59367356
-20.73530156 26.94129059 -23.59367356
-20.73530156 26.94129059 3.406326445
-20.73530156 27.94129059 -22.59367356
-21.73530156 27.94129059 -21.59367356
-20.73530156 27.94129059 -22.59367356
-20.73530156 27.94129059 2.406326445
-20.73530156 27.94129059 2.406326445
-20.73530156 28.94129059 -21.59367356
-21.73530156 28.94129059 -20.59367356
-20.73530156 28.94129059 -21.59367356
-20.73530156 28.94129059 2.406326445
-20.73530156 29.94129059 -20.59367356
-20.73530156 29.94129059 -19.59367356
-21.73530156 29.94129059 -18.59367356
-20.73530156 29.94129059 -19.59367356
-20.73530156 29.94129059 1.406326445
-20.73530156 29.94129059 1.406326445
-20.73530156 30.94129059 -18.59367356
-20.73530156 30.94129059 -17.59367356
-21.73530156 30.94129059 -16.59367356
-20.73530156 30.94129059 -17.59367356
-21.73530156 30.94129059 0.4063264445
-20.73530156 30.94129059 1.406326445
-20.73530156 31.94129059 -16.59367356
-21.73530156 31.94129059 -15.59367356
-20.73530156 31.94129059 -16.59367356
-21.73530156 31.94129059 -14.59367356
-20.73530156 31.94129059 0.4063264445
-20.73530156 31.94129059 0.4063264445
-20.73530156 32.94129059 -15.59367356
-20.73530156 32.94129059 -14.59367356
-21.73530156 32.94129059 -13.59367356
-20.73530156 32.94129059 -14.59367356
-21.73530156 32.94129059 -0.5936735555
-20.73530156 32.94129059 0.4063264445
-20.73530156 33.94129059 -13.59367356
-21.73530156 33.94129059 -12.59367356
-20.73530156 33.94129059 -13.59367356
-20.73530156 33.94129059 -0.5936735555
-20.73530156 33.94129059 -0.5936735555
-20.73530156 34.94129059 -12.59367356
-21.73530156 34.94129059 -11.59367356
-20.73530156 34.94129059 -12.59367356
-21.73530156 34.94129059 -1.593673555
-20.73530156 34.94129059 -0.5936735555
-20.73530156 35.94129059 -11.59367356
-21.73530156 35.94129059 -10.59367356
-20.73530156 35.94129059 -11.59367356
-21.73530156 35.94129059 -9.593673555
-21.73530156 35.94129059 -3.593673555
-20.73530156 35.94129059 -2.593673555
-20.73530156 35.94129059 -2.593673555
-20.73530156 35.94129059 -1.593673555
-20.73530156 36.94129059 -10.59367356
-20.73530156 36.94129059 -9.593673555
-20.73530156 36.94129059 -8.593673555
-20.73530156 36.94129059 -7.593673555
-20.73530156 36.94129059 -6.593673555
-20.73530156 36.94129059 -5.593673555
-20.73530156 36.94129059 -4.593673555
-20.73530156 36.94129059 -3.593673555
-20.73530156 -28.05870941 6.406326445
-19.73530156 -29.05870941 6.406326445
-19.73530156 -28.05870941 5.406326445
-20.73530156 -28.05870941 7.406326445
-19.73530156 -29.05870941 7.406326445
-20.73530156 -28.05870941 8.406326445
-19.73530156 -29.05870941 8.406326445
-19.73530156 -28.05870941 9.406326445
-20.73530156 -27.05870941 2.406326445
-19.73530156 -28.05870941 2.406326445
-19.73530156 -27.05870941 1.406326445
-20.73530156 -27.05870941 3.406326445
-19.73530156 -28.05870941 3.406326445
-20.73530156 -27.05870941 4.406326445
-19.73530156 -28.05870941 4.406326445
-20.73530156 -27.05870941 5.406326445
-19.73530156 -28.05870941 5.406326445
-20.73530156 -27.05870941 6.406326445
-20.73530156 -27.05870941 7.406326445
-20.73530156 -27.05870941 8.406326445
-20.73530156 -27.05870941 9.406326445
-19.73530156 -28.05870941 9.406326445
-20.73530156 -27.05870941 10.40632644
-19.73530156 -28.05870941 10.40632644
-20.73530156 -27.05870941 11.40632644
-19.73530156 -28.05870941 11.40632644
-20.73530156 -27.05870941 12.40632644
-19.73530156 -28.05870941 12.40632644
-20.73530156 -27.05870941 13.40632644
-19.73530156 -28.05870941 13.40632644
-19.73530156 -27.05870941 14.40632644
-20.73530156 -26.05870941 0.4063264445
-19.73530156 -27.05870941 0.4063264445
-19.73530156 -26.05870941 -0.5936735555
-20.73530156 -26.05870941 1.406326445
-19.73530156 -27.05870941 1.406326445
-20.73530156 -26.05870941 2.406326445
-20.73530156 -26.05870941 3.406326445
-20.73530156 -26.05870941 4.406326445
-20.73530156 -26.05870941 5.406326445
-20.73530156 -26.05870941 6.406326445
-20.73530156 -26.05870941 7.406326445
-20.73530156 -26.05870941 8.406326445
-20.73530156 -26.05870941 9.406326445
-20.73530156 -26.05870941 10.40632644
-20.73530156 -26.05870941 11.40632644
-20.73530156 -26.05870941 12.40632644
-20.73530156 -26.05870941 13.40632644
-20.73530156 -26.05870941 14.40632644
-19.73530156 -27.05870941 14.40632644
-20.73530156 -26.05870941 15.40632644
-19.73530156 -27.05870941 15.40632644
-19.73530156 -26.05870941 16.40632644
-20.73530156 -25.05870941 -0.5936735555
-19.73530156 -26.05870941 -0.5936735555
-19.73530156 -25.05870941 -1.593673555
-20.73530156 -25.05870941 0.4063264445
-20.73530156 -25.05870941 1.406326445
-20.73530156 -25.05870941 2.406326445
-20.73530156 -25.05870941 3.406326445
-20.73530156 -25.05870941 4.406326445
-20.73530156 -25.05870941 5.406326445
-20.73530156 -25.05870941 6.406326445
-20.73530156 -25.05870941 7.406326445
-20.73530156 -25.05870941 8.406326445
-20.73530156 -25.05870941 9.406326445
-20.73530156 -25.05870941 10.40632644
-20.73530156 -25.05870941 11.40632644
-20.73530156 -25.05870941 12.40632644
-20.73530156 -25.05870941 13.40632644
-20.73530156 -25.05870941 14.40632644
-20.73530156 -25.05870941 15.40632644
-20.73530156 -25.05870941 16.40632644
-19.73530156 -26.05870941 16.40632644
-19.73530156 -25.05870941 17.40632644
-20.73530156 -24.05870941 -3.593673555
-19.73530156 -25.05870941 -3.593673555
-19.73530156 -24.05870941 -4.593673555
-20.73530156 -24.05870941 -2.593673555
-19.73530156 -25.05870941 -2.593673555
-20.73530156 -24.05870941 -1.593673555
-19.73530156 -25.05870941 -1.593673555
-20.73530156 -24.05870941 -0.5936735555
-20.73530156 -24.05870941 0.4063264445
-20.73530156 -24.05870941 1.406326445
-20.73530156 -24.05870941 2.406326445
-20.73530156 -24.05870941 3.406326445
-20.73530156 -24.05870941 4.406326445
-20.73530156 -24.05870941 5.406326445
-20.73530156 -24.05870941 6.406326445
-20.73530156 -24.05870941 7.406326445
-20.73530156 -24.05870941 8.406326445
-20.73530156 -24.05870941 9.406326445
-20.73530156 -24.05870941 10.40632644
-20.73530156 -24.05870941 11.40632644
-20.73530156 -24.05870941 12.40632644
-20.73530156 -24.05870941 13.40632644
-20.73530156 -24.05870941 14.40632644
-20.73530156 -24.05870941 15.40632644
-20.73530156 -24.05870941 16.40632644
-19.73530156 -24.05870941 17.40632644
-20.73530156 -23.05870941 -5.593673555
-19.73530156 -24.05870941 -5.593673555
-19.73530156 -23.05870941 -6.593673555
-20.73530156 -23.05870941 -4.593673555
-19.73530156 -24.05870941 -4.593673555
-20.73530156 -23.05870941 -3.593673555
-20.73530156 -23.05870941 -2.593673555
-20.73530156 -23.05870941 -1.593673555
-20.73530156 -23.05870941 -0.5936735555
-20.73530156 -23.05870941 0.4063264445
-20.73530156 -23.05870941 1.406326445
-20.73530156 -23.05870941 2.406326445
-20.73530156 -23.05870941 3.406326445
-20.73530156 -23.05870941 4.406326445
-20.73530156 -23.05870941 5.406326445
-20.73530156 -23.05870941 6.406326445
-20.73530156 -23.05870941 7.406326445
-20.73530156 -23.05870941 8.406326445
-20.73530156 -23.05870941 9.406326445
-20.73530156 -23.05870941 10.40632644
-20.73530156 -23.05870941 11.40632644
-20.73530156 -23.05870941 12.40632644
-20.73530156 -23.05870941 13.40632644
-20.73530156 -23.05870941 14.40632644
-20.73530156 -23.05870941 15.40632644
-20.73530156 -23.05870941 16.40632644
-20.73530156 -23.05870941 17.40632644
-19.73530156 -24.05870941 17.40632644
-19.73530156 -23.05870941 18.40632644
-20.73530156 -22.05870941 -10.59367356
-19.73530156 -23.05870941 -10.59367356
-19.73530156 -22.05870941 -11.59367356
-20.73530156 -22.05870941 -9.593673555
-19.73530156 -23.05870941 -9.593673555
-20.73530156 -22.05870941 -8.593673555
-19.73530156 -23.05870941 -8.593673555
-20.73530156 -22.05870941 -7.593673555
-19.73530156 -23.05870941 -7.593673555
-20.73530156 -22.05870941 -6.593673555
-19.73530156 -23.05870941 -6.593673555
-20.73530156 -22.05870941 -5.593673555
-20.73530156 -22.05870941 -4.593673555
-20.73530156 -22.05870941 -3.593673555
-20.73530156 -22.05870941 -2.593673555
-20.73530156 -22.05870941 -1.593673555
-20.73530156 -22.05870941 -0.5936735555
-20.73530156 -22.05870941 0.4063264445
-20.73530156 -22.05870941 1.406326445
-20.73530156 -22.05870941 2.406326445
-20.73530156 -22.05870941 3.406326445
-20.73530156 -22.05870941 4.406326445
-20.73530156 -22.05870941 5.406326445
-20.73530156 -22.05870941 6.406326445
-20.73530156 -22.05870941 7.406326445
-20.73530156 -22.05870941 8.406326445
-20.73530156 -22.05870941 9.406326445
-20.73530156 -22.05870941 10.40632644
-20.73530156 -22.05870941 11.40632644
-20.73530156 -22.05870941 16.40632644
-20.73530156 -22.05870941 17.40632644
-19.73530156 -22.05870941 18.40632644
-20.73530156 -21.05870941 -12.59367356
-19.73530156 -22.05870941 -12.59367356
-19.73530156 -21.05870941 -13.59367356
-20.73530156 -21.05870941 -11.59367356
-19.73530156 -22.05870941 -11.59367356
-20.73530156 -21.05870941 -10.59367356
-20.73530156 -21.05870941 -9.593673555
-20.73530156 -21.05870941 -8.593673555
-20.73530156 -21.05870941 -7.593673555
-20.73530156 -21.05870941 -6.593673555
-20.73530156 -21.05870941 -5.593673555
-20.73530156 -21.05870941 -4.593673555
-20.73530156 -21.05870941 -3.593673555
-20.73530156 -21.05870941 -2.593673555
-20.73530156 -21.05870941 -1.593673555
-20.73530156 -21.05870941 -0.5936735555
-20.73530156 -21.05870941 0.4063264445
-20.73530156 -21.05870941 1.406326445
-20.73530156 -21.05870941 2.406326445
-20.73530156 -21.05870941 3.406326445
-20.73530156 -21.05870941 4.406326445
-20.73530156 -21.05870941 5.406326445
-20.73530156 -21.05870941 6.406326445
-20.73530156 -21.05870941 7.406326445
-20.73530156 -21.05870941 8.406326445
-20.73530156 -21.05870941 9.406326445
-20.73530156 -21.05870941 10.40632644
-20.73530156 -21.05870941 16.40632644
-20.73530156 -21.05870941 17.40632644
-19.73530156 -21.05870941 18.40632644
-20.73530156 -20.05870941 -17.59367356
-19.73530156 -21.05870941 -17.59367356
-19.73530156 -20.05870941 -18.59367356
-20.73530156 -20.05870941 -16.59367356
-19.73530156 -21.05870941 -16.59367356
-20.73530156 -20.05870941 -15.59367356
-19.73530156 -21.05870941 -15.59367356
-20.73530156 -20.05870941 -14.59367356
-19.73530156 -21.05870941 -14.59367356
-20.73530156 -20.05870941 -13.59367356
-19.73530156 -21.05870941 -13.59367356
-20.73530156 -20.05870941 -12.59367356
-20.73530156 -20.05870941 -11.59367356
-20.73530156 -20.05870941 -10.59367356
-20.73530156 -20.05870941 -9.593673555
-20.73530156 -20.05870941 -8.593673555
-20.73530156 -20.05870941 -7.593673555
-20.73530156 -20.05870941 -6.593673555
-20.73530156 -20.05870941 -5.593673555
-20.73530156 -20.05870941 -4.593673555
-20.73530156 -20.05870941 -3.593673555
-20.73530156 -20.05870941 -2.593673555
-20.73530156 -20.05870941 -1.593673555
-20.73530156 -20.05870941 -0.5936735555
-20.73530156 -20.05870941 0.4063264445
-20.73530156 -20.05870941 1.406326445
-20.73530156 -20.05870941 2.406326445
-20.73530156 -20.05870941 3.406326445
-20.73530156 -20.05870941 4.406326445
-20.73530156 -20.05870941 5.406326445
-20.73530156 -20.05870941 6.406326445
-20.73530156 -20.05870941 7.406326445
-20.73530156 -20.05870941 8.406326445
-20.73530156 -20.05870941 9.406326445
-20.73530156 -20.05870941 10.40632644
-20.73530156 -20.05870941 16.40632644
-20.73530156 -20.05870941 17.40632644
-20.73530156 -20.05870941 18.40632644
-19.73530156 -21.05870941 18.40632644
-19.73530156 -20.05870941 19.40632644
-20.73530156 -19.05870941 -20.59367356
-19.73530156 -20.05870941 -20.59367356
-19.73530156 -19.05870941 -21.59367356
-20.73530156 -19.05870941 -19.59367356
-19.73530156 -20.05870941 -19.59367356
-20.73530156 -19.05870941 -18.59367356
-19.73530156 -20.05870941 -18.59367356
-20.73530156 -19.05870941 -17.59367356
-20.73530156 -19.05870941 -16.59367356
-20.73530156 -19.05870941 -15.59367356
-20.73530156 -19.05870941 -14.59367356
-20.73530156 -19.05870941 -13.59367356
-20.73530156 -19.05870941 -12.59367356
-20.73530156 -19.05870941 -11.59367356
-20.73530156 -19.05870941 -10.59367356
-20.73530156 -19.05870941 -9.593673555
-20.73530156 -19.05870941 -8.593673555
-20.73530156 -19.05870941 -7.593673555
-20.73530156 -19.05870941 -6.593673555
-20.73530156 -19.05870941 -5.593673555
-20.73530156 -19.05870941 -4.593673555
-20.73530156 -19.05870941 -3.593673555
-20.73530156 -19.05870941 -2.593673555
-20.73530156 -19.05870941 -1.593673555
-20.73530156 -19.05870941 -0.5936735555
-20.73530156 -19.05870941 0.4063264445
-20.73530156 -19.05870941 1.406326445
-20.73530156 -19.05870941 2.406326445
-20.73530156 -19.05870941 3.406326445
-20.73530156 -19.05870941 4.406326445
-20.73530156 -19.05870941 5.406326445
-20.73530156 -19.05870941 6.406326445
-20.73530156 -19.05870941 7.406326445
-20.73530156 -19.05870941 8.406326445
-20.73530156 -19.05870941 9.406326445
-20.73530156 -19.05870941 17.40632644
-20.73530156 -19.05870941 18.40632644
-19.73530156 -19.05870941 19.40632644
-20.73530156 -18.05870941 -21.59367356
-19.73530156 -19.05870941 -21.59367356
-19.73530156 -18.05870941 -22.59367356
-20.73530156 -18.05870941 -20.59367356
-20.73530156 -18.05870941 -19.59367356
-20.73530156 -18.05870941 -18.59367356
-20.73530156 -18.05870941 -17.59367356
-20.73530156 -18.05870941 -16.59367356
-20.73530156 -18.05870941 -15.59367356
-20.73530156 -18.05870941 -14.59367356
-20.73530156 -18.05870941 -13.59367356
-20.73530156 -18.05870941 -12.59367356
-20.73530156 -18.05870941 -11.59367356
-20.73530156 -18.05870941 -10.59367356
-20.73530156 -18.05870941 -9.593673555
-20.73530156 -18.05870941 -8.593673555
-20.73530156 -18.05870941 -7.593673555
-20.73530156 -18.05870941 -6.593673555
-20.73530156 -18.05870941 -5.593673555
-20.73530156 -18.05870941 -4.593673555
-20.73530156 -18.05870941 -3.593673555
-20.73530156 -18.05870941 -2.593673555
-20.73530156 -18.05870941 -1.593673555
-20.73530156 -18.05870941 -0.5936735555
-20.73530156 -18.05870941 0.4063264445
-20.73530156 -18.05870941 1.406326445
-20.73530156 -18.05870941 2.406326445
-20.73530156 -18.05870941 3.406326445
-20.73530156 -18.05870941 4.406326445
-20.73530156 -18.05870941 5.406326445
-20.73530156 -18.05870941 6.406326445
-20.73530156 -18.05870941 7.406326445
-20.73530156 -18.05870941 8.406326445
-20.73530156 -18.05870941 17.40632644
-20.73530156 -18.05870941 18.40632644
-19.73530156 -18.05870941 19.40632644
-20.73530156 -17.05870941 -23.59367356
-19.73530156 -18.05870941 -23.59367356
-19.73530156 -17.05870941 -24.59367356
-20.73530156 -17.05870941 -22.59367356
-19.73530156 -18.05870941 -22.59367356
-20.73530156 -17.05870941 -21.59367356
-20.73530156 -17.05870941 -20.59367356
-20.73530156 -17.05870941 -19.59367356
-20.73530156 -17.05870941 -18.59367356
-20.73530156 -17.05870941 -17.59367356
-20.73530156 -17.05870941 -16.59367356
-20.73530156 -17.05870941 -15.59367356
-20.73530156 -17.05870941 -14.59367356
-20.73530156 -17.05870941 -13.59367356
-20.73530156 -17.05870941 -12.59367356
-20.73530156 -17.05870941 -11.59367356
-20.73530156 -17.05870941 -10.59367356
-20.73530156 -17.05870941 -9.593673555
-20.73530156 -17.05870941 -8.593673555
-20.73530156 -17.05870941 -7.593673555
-20.73530156 -17.05870941 -6.593673555
-20.73530156 -17.05870941 -5.593673555
-20.73530156 -17.05870941 -4.593673555
-20.73530156 -17.05870941 -3.593673555
-20.73530156 -17.05870941 -2.593673555
-20.73530156 -17.05870941 -1.593673555
-20.73530156 -17.05870941 -0.5936735555
-20.73530156 -17.05870941 0.4063264445
-20.73530156 -17.05870941 1.406326445
-20.73530156 -17.05870941 2.406326445
-20.73530156 -17.05870941 3.406326445
-20.73530156 -17.05870941 4.406326445
-20.73530156 -17.05870941 5.406326445
-20.73530156 -17.05870941 6.406326445
-20.73530156 -17.05870941 7.406326445
-20.73530156 -17.05870941 17.40632644
-20.73530156 -17.05870941 18.40632644
-20.73530156 -17.05870941 19.40632644
-19.73530156 -18.05870941 19.40632644
-19.73530156 -17.05870941 20.40632644
-20.73530156 -16.05870941 -24.59367356
-19.73530156 -17.05870941 -24.59367356
-19.73530156 -16.05870941 -25.59367356
-20.73530156 -16.05870941 -23.59367356
-20.73530156 -16.05870941 -22.59367356
-20.73530156 -16.05870941 -21.59367356
-20.73530156 -16.05870941 -20.59367356
-20.73530156 -16.05870941 -19.59367356
-20.73530156 -16.05870941 -15.59367356
-20.73530156 -16.05870941 -14.59367356
-20.73530156 -16.05870941 -13.59367356
-20.73530156 -16.05870941 -12.59367356
-20.73530156 -16.05870941 -11.59367356
-20.73530156 -16.05870941 -10.59367356
-20.73530156 -16.05870941 -9.593673555
-20.73530156 -16.05870941 -8.593673555
-20.73530156 -16.05870941 -7.593673555
-20.73530156 -16.05870941 -6.593673555
-20.73530156 -16.05870941 -5.593673555
-20.73530156 -16.05870941 -4.593673555
-20.73530156 -16.05870941 -3.593673555
-20.73530156 -16.05870941 -2.593673555
-20.73530156 -16.05870941 -1.593673555
-20.73530156 -16.05870941 -0.5936735555
-20.73530156 -16.05870941 0.4063264445
-20.73530156 -16.05870941 1.406326445
-20.73530156 -16.05870941 2.406326445
-20.73530156 -16.05870941 3.406326445
-20.73530156 -16.05870941 4.406326445
-20.73530156 -16.05870941 5.406326445
-20.73530156 -16.05870941 6.406326445
-20.73530156 -16.05870941 17.40632644
-20.73530156 -16.05870941 18.40632644
-20.73530156 -16.05870941 19.40632644
-19.73530156 -16.05870941 20.40632644
-20.73530156 -15.05870941 -25.59367356
-19.73530156 -16.05870941 -25.59367356
-19.73530156 -15.05870941 -26.59367356
-20.73530156 -15.05870941 -24.59367356
-20.73530156 -15.05870941 -23.59367356
-20.73530156 -15.05870941 -22.59367356
-20.73530156 -15.05870941 -9.593673555
-20.73530156 -15.05870941 -8.593673555
-20.73530156 -15.05870941 -7.593673555
-20.73530156 -15.05870941 -6.593673555
-20.73530156 -15.05870941 -5.593673555
-20.73530156 -15.05870941 -4.593673555
-20.73530156 -15.05870941 -3.593673555
-20.73530156 -15.05870941 -2.593673555
-20.73530156 -15.05870941 -1.593673555
-20.73530156 -15.05870941 -0.5936735555
-20.73530156 -15.05870941 0.4063264445
-20.73530156 -15.05870941 1.406326445
-20.73530156 -15.05870941 2.406326445
-20.73530156 -15.05870941 3.406326445
-20.73530156 -15.05870941 4.406326445
-20.73530156 -15.05870941 18.40632644
-20.73530156 -15.05870941 19.40632644
-19.73530156 -15.05870941 20.40632644
-20.73530156 -14.05870941 -26.59367356
-19.73530156 -15.05870941 -26.59367356
-19.73530156 -14.05870941 -27.59367356
-20.73530156 -14.05870941 -25.59367356
-20.73530156 -14.05870941 -24.59367356
-20.73530156 -14.05870941 -6.593673555
-20.73530156 -14.05870941 -5.593673555
-20.73530156 -14.05870941 -4.593673555
-20.73530156 -14.05870941 -3.593673555
-20.73530156 -14.05870941 -2.593673555
-20.73530156 -14.05870941 -1.593673555
-20.73530156 -14.05870941 -0.5936735555
-20.73530156 -14.05870941 0.4063264445
-20.73530156 -14.05870941 1.406326445
-20.73530156 -14.05870941 2.406326445
-20.73530156 -14.05870941 3.406326445
-20.73530156 -14.05870941 19.40632644
-20.73530156 -14.05870941 20.40632644
-19.73530156 -15.05870941 20.40632644
-19.73530156 -14.05870941 21.40632644
-20.73530156 -13.05870941 -27.59367356
-19.73530156 -14.05870941 -27.59367356
-19.73530156 -13.05870941 -28.59367356
-20.73530156 -13.05870941 -26.59367356
-20.73530156 -13.05870941 -25.59367356
-20.73530156 -13.05870941 -3.593673555
-20.73530156 -13.05870941 -2.593673555
-20.73530156 -13.05870941 -1.593673555
-20.73530156 -13.05870941 -0.5936735555
-20.73530156 -13.05870941 0.4063264445
-20.73530156 -13.05870941 1.406326445
-20.73530156 -13.05870941 2.406326445
-20.73530156 -13.05870941 20.40632644
-20.73530156 -13.05870941 21.40632644
-19.73530156 -14.05870941 21.40632644
-19.73530156 -13.05870941 22.40632644
-20.73530156 -12.05870941 -27.59367356
-19.73530156 -12.05870941 -28.59367356
-20.73530156 -12.05870941 -26.59367356
-20.73530156 -12.05870941 -25.59367356
-20.73530156 -12.05870941 -1.593673555
-20.73530156 -12.05870941 -0.5936735555
-20.73530156 -12.05870941 0.4063264445
-20.73530156 -12.05870941 1.406326445
-20.73530156 -12.05870941 21.40632644
-19.73530156 -12.05870941 22.40632644
-20.73530156 -11.05870941 -28.59367356
-19.73530156 -12.05870941 -28.59367356
-19.73530156 -11.05870941 -29.59367356
-20.73530156 -11.05870941 -27.59367356
-20.73530156 -11.05870941 -26.59367356
-19.73530156 -11.05870941 22.40632644
-20.73530156 -10.05870941 -28.59367356
-19.73530156 -10.05870941 -29.59367356
-20.73530156 -10.05870941 -27.59367356
-20.73530156 -10.05870941 -26.59367356
-20.73530156 -10.05870941 21.40632644
-19.73530156 -10.05870941 22.40632644
-20.73530156 -9.058709405 -28.59367356
-19.73530156 -9.058709405 -29.59367356
-20.73530156 -9.058709405 -27.59367356
-20.73530156 -9.058709405 19.40632644
-20.73530156 -9.058709405 20.40632644
-19.73530156 -9.058709405 21.40632644
-19.73530156 -9.058709405 21.40632644
-20.73530156 -8.058709405 -30.59367356
-19.73530156 -9.058709405 -30.59367356
-19.73530156 -8.058709405 -31.59367356
-19.73530156 -8.058709405 -29.59367356
-20.73530156 -8.058709405 -28.59367356
-19.73530156 -8.058709405 -29.59367356
-20.73530156 -8.058709405 -27.59367356
-20.73530156 -8.058709405 17.40632644
-20.73530156 -8.058709405 18.40632644
-19.73530156 -8.058709405 19.40632644
-19.73530156 -8.058709405 19.40632644
-19.73530156 -8.058709405 20.40632644
-20.73530156 -7.058709405 -30.59367356
-19.73530156 -7.058709405 -31.59367356
-19.73530156 -7.058709405 -29.59367356
-20.73530156 -7.058709405 -28.59367356
-19.73530156 -7.058709405 -29.59367356
-20.73530156 -7.058709405 -27.59367356
-20.73530156 -7.058709405 17.40632644
-19.73530156 -7.058709405 18.40632644
-19.73530156 -7.058709405 18.40632644
-20.73530156 -6.058709405 -31.59367356
-19.73530156 -7.058709405 -31.59367356
-19.73530156 -6.058709405 -32.59367356
-20.73530156 -6.058709405 -30.59367356
-19.73530156 -6.058709405 -29.59367356
-20.73530156 -6.058709405 -28.59367356
-19.73530156 -6.058709405 -29.59367356
-20.73530156 -6.058709405 16.40632644
-20.73530156 -6.058709405 17.40632644
-19.73530156 -6.058709405 18.40632644
-20.73530156 -5.058709405 -31.59367356
-19.73530156 -5.058709405 -32.59367356
-20.73530156 -5.058709405 -30.59367356
-19.73530156 -5.058709405 -29.59367356
-20.73530156 -5.058709405 -28.59367356
-19.73530156 -5.058709405 -29.59367356
-20.73530156 -5.058709405 15.40632644
-20.73530156 -5.058709405 16.40632644
-19.73530156 -5.058709405 17.40632644
-19.73530156 -5.058709405 17.40632644
-20.73530156 -4.058709405 -31.59367356
-19.73530156 -4.058709405 -32.59367356
-20.73530156 -4.058709405 -30.59367356
-19.73530156 -4.058709405 -29.59367356
-20.73530156 -4.058709405 -28.59367356
-19.73530156 -4.058709405 -29.59367356
-20.73530156 -4.058709405 15.40632644
-20.73530156 -4.058709405 16.40632644
-19.73530156 -4.058709405 17.40632644
-20.73530156 -3.058709405 -31.59367356
-19.73530156 -3.058709405 -32.59367356
-20.73530156 -3.058709405 -30.59367356
-19.73530156 -3.058709405 -29.59367356
-20.73530156 -3.058709405 -28.59367356
-19.73530156 -3.058709405 -29.59367356
-20.73530156 -3.058709405 14.40632644
-20.73530156 -3.058709405 15.40632644
-19.73530156 -3.058709405 16.40632644
-19.73530156 -3.058709405 16.40632644
-20.73530156 -2.058709405 -31.59367356
-19.73530156 -2.058709405 -32.59367356
-20.73530156 -2.058709405 -30.59367356
-19.73530156 -2.058709405 -29.59367356
-19.73530156 -2.058709405 -29.59367356
-20.73530156 -2.058709405 14.40632644
-20.73530156 -2.058709405 15.40632644
-19.73530156 -2.058709405 16.40632644
-20.73530156 -1.058709405 -31.59367356
-19.73530156 -1.058709405 -32.59367356
-20.73530156 -1.058709405 -30.59367356
-19.73530156 -1.058709405 -29.59367356
-19.73530156 -1.058709405 -29.59367356
-20.73530156 -1.058709405 13.40632644
-20.73530156 -1.058709405 14.40632644
-19.73530156 -1.058709405 15.40632644
-19.73530156 -1.058709405 15.40632644
-20.73530156 -0.05870940531 -31.59367356
-19.73530156 -0.05870940531 -32.59367356
-20.73530156 -0.05870940531 -30.59367356
-19.73530156 -0.05870940531 -29.59367356
-19.73530156 -0.05870940531 -29.59367356
-20.73530156 -0.05870940531 13.40632644
-20.73530156 -0.05870940531 14.40632644
-19.73530156 -0.05870940531 15.40632644
-20.73530156 0.9412905947 -31.59367356
-19.73530156 0.9412905947 -32.59367356
-20.73530156 0.9412905947 -30.59367356
-19.73530156 0.9412905947 -29.59367356
-19.73530156 0.9412905947 -29.59367356
-20.73530156 0.9412905947 13.40632644
-20.73530156 0.9412905947 14.40632644
-19.73530156 0.9412905947 15.40632644
-20.73530156 1.941290595 -31.59367356
-19.73530156 1.941290595 -32.59367356
-20.73530156 1.941290595 -30.59367356
-19.73530156 1.941290595 -29.59367356
-19.73530156 1.941290595 -29.59367356
-20.73530156 1.941290595 12.40632644
-20.73530156 1.941290595 13.40632644
-20.73530156 1.941290595 14.40632644
-19.73530156 1.941290595 15.40632644
-20.73530156 2.941290595 -31.59367356
-19.73530156 2.941290595 -32.59367356
-20.73530156 2.941290595 -30.59367356
-19.73530156 2.941290595 -29.59367356
-19.73530156 2.941290595 -29.59367356
-20.73530156 2.941290595 12.40632644
-20.73530156 2.941290595 13.40632644
-19.73530156 2.941290595 14.40632644
-19.73530156 2.941290595 14.40632644
-20.73530156 3.941290595 -31.59367356
-19.73530156 3.941290595 -32.59367356
-20.73530156 3.941290595 -30.59367356
-20.73530156 3.941290595 -29.59367356
-19.73530156 2.941290595 -29.59367356
-20.73530156 3.941290595 12.40632644
-20.73530156 3.941290595 13.40632644
-19.73530156 3.941290595 14.40632644
-20.73530156 4.941290595 -31.59367356
-19.73530156 4.941290595 -32.59367356
-20.73530156 4.941290595 -30.59367356
-20.73530156 4.941290595 -29.59367356
-20.73530156 4.941290595 12.40632644
-20.73530156 4.941290595 13.40632644
-19.73530156 4.941290595 14.40632644
-20.73530156 5.941290595 -31.59367356
-19.73530156 5.941290595 -32.59367356
-20.73530156 5.941290595 -30.59367356
-20.73530156 5.941290595 -29.59367356
-20.73530156 5.941290595 11.40632644
-20.73530156 5.941290595 12.40632644
-19.73530156 5.941290595 13.40632644
-19.73530156 5.941290595 13.40632644
-20.73530156 6.941290595 -31.59367356
-19.73530156 6.941290595 -32.59367356
-20.73530156 6.941290595 -30.59367356
-20.73530156 6.941290595 -29.59367356
-20.73530156 6.941290595 11.40632644
-20.73530156 6.941290595 12.40632644
-19.73530156 6.941290595 13.40632644
-20.73530156 7.941290595 -31.59367356
-19.73530156 7.941290595 -32.59367356
-20.73530156 7.941290595 -30.59367356
-20.73530156 7.941290595 -29.59367356
-20.73530156 7.941290595 -28.59367356
-20.73530156 7.941290595 11.40632644
-19.73530156 7.941290595 12.40632644
-19.73530156 7.941290595 12.40632644
-19.73530156 8.941290595 -31.59367356
-20.73530156 8.941290595 -30.59367356
-19.73530156 8.941290595 -31.59367356
-20.73530156 8.941290595 -29.59367356
-20.73530156 8.941290595 -28.59367356
-20.73530156 8.941290595 10.40632644
-20.73530156 8.941290595 11.40632644
-19.73530156 8.941290595 12.40632644
-20.73530156 9.941290595 -30.59367356
-19.73530156 9.941290595 -31.59367356
-20.73530156 9.941290595 -29.59367356
-20.73530156 9.941290595 -28.59367356
-20.73530156 9.941290595 10.40632644
-20.73530156 9.941290595 11.40632644
-19.73530156 9.941290595 12.40632644
-20.73530156 10.94129059 -30.59367356
-19.73530156 10.94129059 -31.59367356
-20.73530156 10.94129059 -29.59367356
-20.73530156 10.94129059 -28.59367356
-20.73530156 10.94129059 10.40632644
-19.73530156 10.94129059 11.40632644
-19.73530156 10.94129059 11.40632644
-20.73530156 11.94129059 -30.59367356
-19.73530156 11.94129059 -31.59367356
-20.73530156 11.94129059 -29.59367356
-20.73530156 11.94129059 -28.59367356
-20.73530156 11.94129059 9.406326445
-20.73530156 11.94129059 10.40632644
-19.73530156 11.94129059 11.40632644
-19.73530156 12.94129059 -30.59367356
-20.73530156 12.94129059 -29.59367356
-19.73530156 12.94129059 -30.59367356
-20.73530156 12.94129059 -28.59367356
-20.73530156 12.94129059 9.406326445
-19.73530156 12.94129059 10.40632644
-19.73530156 12.94129059 10.40632644
-20.73530156 13.94129059 -29.59367356
-19.73530156 13.94129059 -30.59367356
-20.73530156 13.94129059 -28.59367356
-20.73530156 13.94129059 -27.59367356
-20.73530156 13.94129059 8.406326445
-19.73530156 13.94129059 9.406326445
-19.73530156 13.94129059 9.406326445
-20.73530156 14.94129059 -29.59367356
-19.73530156 14.94129059 -30.59367356
-20.73530156 14.94129059 -28.59367356
-20.73530156 14.94129059 -27.59367356
-20.73530156 14.94129059 8.406326445
-19.73530156 14.94129059 9.406326445
-19.73530156 15.94129059 -29.59367356
-20.73530156 15.94129059 -28.59367356
-19.73530156 15.94129059 -29.59367356
-20.73530156 15.94129059 -27.59367356
-20.73530156 15.94129059 7.406326445
-19.73530156 15.94129059 8.406326445
-19.73530156 15.94129059 8.406326445
-20.73530156 16.94129059 -28.59367356
-19.73530156 16.94129059 -29.59367356
-20.73530156 16.94129059 -27.59367356
-20.73530156 16.94129059 7.406326445
-19.73530156 16.94129059 8.406326445
-19.73530156 17.94129059 -28.59367356
-20.73530156 17.94129059 -27.59367356
-19.73530156 17.94129059 -28.59367356
-20.73530156 17.94129059 6.406326445
-20.73530156 17.94129059 7.406326445
-19.73530156 17.94129059 8.406326445
-20.73530156 18.94129059 -27.59367356
-19.73530156 18.94129059 -28.59367356
-20.73530156 18.94129059 -26.59367356
-20.73530156 18.94129059 6.406326445
-19.73530156 18.94129059 7.406326445
-19.73530156 18.94129059 7.406326445
-19.73530156 19.94129059 -27.59367356
-20.73530156 19.94129059 -26.59367356
-19.73530156 19.94129059 -27.59367356
-20.73530156 19.94129059 6.406326445
-19.73530156 19.94129059 7.406326445
-20.73530156 20.94129059 -26.59367356
-19.73530156 20.94129059 -27.59367356
-20.73530156 20.94129059 5.406326445
-19.73530156 20.94129059 6.406326445
-19.73530156 20.94129059 6.406326445
-20.73530156 21.94129059 -26.59367356
-19.73530156 21.94129059 -27.59367356
-20.73530156 21.94129059 -25.59367356
-20.73530156 21.94129059 5.406326445
-19.73530156 21.94129059 6.406326445
-19.73530156 22.94129059 -26.59367356
-20.73530156 22.94129059 -25.59367356
-19.73530156 22.94129059 -26.59367356
-19.73530156 22.94129059 5.406326445
-19.73530156 22.94129059 5.406326445
-20.73530156 23.94129059 -25.59367356
-19.73530156 23.94129059 -26.59367356
-20.73530156 23.94129059 4.406326445
-19.73530156 23.94129059 5.406326445
-20.73530156 24.94129059 -25.59367356
-19.73530156 24.94129059 -26.59367356
-20.73530156 24.94129059 -24.59367356
-19.73530156 24.94129059 4.406326445
-19.73530156 24.94129059 4.406326445
-19.73530156 25.94129059 -25.59367356
-20.73530156 25.94129059 -24.59367356
-19.73530156 25.94129059 -25.59367356
-20.73530156 25.94129059 3.406326445
-19.73530156 25.94129059 4.406326445
-20.73530156 26.94129059 -24.59367356
-19.73530156 26.94129059 -25.59367356
-20.73530156 26.94129059 -23.59367356
-19.73530156 26.94129059 3.406326445
-19.73530156 26.94129059 3.406326445
-19.73530156 27.94129059 -24.59367356
-20.73530156 27.94129059 -23.59367356
-19.73530156 27.94129059 -24.59367356
-20.73530156 27.94129059 -22.59367356
-20.73530156 27.94129059 2.406326445
-19.73530156 27.94129059 3.406326445
-19.73530156 28.94129059 -23.59367356
-19.73530156 28.94129059 -22.59367356
-20.73530156 28.94129059 -21.59367356
-19.73530156 28.94129059 -22.59367356
-19.73530156 28.94129059 2.406326445
-19.73530156 28.94129059 2.406326445
-19.73530156 29.94129059 -21.59367356
-19.73530156 29.94129059 -20.59367356
-20.73530156 29.94129059 -19.59367356
-19.73530156 29.94129059 -20.59367356
-20.73530156 29.94129059 1.406326445
-19.73530156 29.94129059 2.406326445
-19.73530156 30.94129059 -19.59367356
-20.73530156 30.94129059 -18.59367356
-19.73530156 30.94129059 -19.59367356
-20.73530156 30.94129059 -17.59367356
-19.73530156 30.94129059 1.406326445
-19.73530156 30.94129059 1.406326445
-19.73530156 31.94129059 -18.59367356
-19.73530156 31.94129059 -17.59367356
-20.73530156 31.94129059 -16.59367356
-19.73530156 31.94129059 -17.59367356
-20.73530156 31.94129059 0.4063264445
-19.73530156 31.94129059 1.406326445
-19.73530156 32.94129059 -16.59367356
-20.73530156 32.94129059 -15.59367356
-19.73530156 32.94129059 -16.59367356
-20.73530156 32.94129059 -14.59367356
-19.73530156 32.94129059 0.4063264445
-19.73530156 32.94129059 0.4063264445
-19.73530156 33.94129059 -15.59367356
-19.73530156 33.94129059 -14.59367356
-20.73530156 33.94129059 -13.59367356
-19.73530156 33.94129059 -14.59367356
-20.73530156 33.94129059 -0.5936735555
-19.73530156 33.94129059 0.4063264445
-19.73530156 34.94129059 -13.59367356
-20.73530156 34.94129059 -12.59367356
-19.73530156 34.94129059 -13.59367356
-19.73530156 34.94129059 -0.5936735555
-19.73530156 34.94129059 -0.5936735555
-19.73530156 35.94129059 -12.59367356
-20.73530156 35.94129059 -11.59367356
-19.73530156 35.94129059 -12.59367356
-20.73530156 35.94129059 -2.593673555
-19.73530156 35.94129059 -1.593673555
-19.73530156 35.94129059 -1.593673555
-19.73530156 36.94129059 -11.59367356
-19.73530156 36.94129059 -10.59367356
-19.73530156 36.94129059 -9.593673555
-20.73530156 36.94129059 -8.593673555
-19.73530156 36.94129059 -9.593673555
-20.73530156 36.94129059 -7.593673555
-20.73530156 36.94129059 -6.593673555
-20.73530156 36.94129059 -5.593673555
-20.73530156 36.94129059 -4.593673555
-19.73530156 36.94129059 -3.593673555
-19.73530156 36.94129059 -3.593673555
-19.73530156 36.94129059 -2.593673555
-19.73530156 37.94129059 -8.593673555
-19.73530156 37.94129059 -7.593673555
-19.73530156 37.94129059 -6.593673555
-19.73530156 37.94129059 -5.593673555
-19.73530156 37.94129059 -4.593673555
-19.73530156 -31.05870941 3.406326445
-18.73530156 -32.05870941 3.406326445
-18.73530156 -31.05870941 2.406326445
-19.73530156 -31.05870941 4.406326445
-18.73530156 -32.05870941 4.406326445
-19.73530156 -31.05870941 5.406326445
-18.73530156 -32.05870941 5.406326445
-19.73530156 -31.05870941 6.406326445
-18.73530156 -32.05870941 6.406326445
-19.73530156 -31.05870941 7.406326445
-18.73530156 -32.05870941 7.406326445
-19.73530156 -31.05870941 8.406326445
-18.73530156 -32.05870941 8.406326445
-19.73530156 -31.05870941 9.406326445
-18.73530156 -32.05870941 9.406326445
-18.73530156 -31.05870941 10.40632644
-19.73530156 -30.05870941 -0.5936735555
-18.73530156 -31.05870941 -0.5936735555
-18.73530156 -30.05870941 -1.593673555
-19.73530156 -30.05870941 0.4063264445
-18.73530156 -31.05870941 0.4063264445
-19.73530156 -30.05870941 1.406326445
-18.73530156 -31.05870941 1.406326445
-19.73530156 -30.05870941 2.406326445
-18.73530156 -31.05870941 2.406326445
-19.73530156 -30.05870941 3.406326445
-19.73530156 -30.05870941 4.406326445
-19.73530156 -30.05870941 5.406326445
-19.73530156 -30.05870941 6.406326445
-19.73530156 -30.05870941 7.406326445
-19.73530156 -30.05870941 8.406326445
-19.73530156 -30.05870941 9.406326445
-19.73530156 -30.05870941 10.40632644
-18.73530156 -31.05870941 10.40632644
-19.73530156 -30.05870941 11.40632644
-18.73530156 -31.05870941 11.40632644
-19.73530156 -30.05870941 12.40632644
-18.73530156 -31.05870941 12.40632644
-18.73530156 -30.05870941 13.40632644
-19.73530156 -29.05870941 -3.593673555
-18.73530156 -30.05870941 -3.593673555
-18.73530156 -29.05870941 -4.593673555
-19.73530156 -29.05870941 -2.593673555
-18.73530156 -30.05870941 -2.593673555
-19.73530156 -29.05870941 -1.593673555
-18.73530156 -30.05870941 -1.593673555
-19.73530156 -29.05870941 -0.5936735555
-19.73530156 -29.05870941 0.4063264445
-19.73530156 -29.05870941 1.406326445
-19.73530156 -29.05870941 2.406326445
-19.73530156 -29.05870941 3.406326445
-19.73530156 -29.05870941 4.406326445
-19.73530156 -29.05870941 5.406326445
-19.73530156 -29.05870941 6.406326445
-19.73530156 -29.05870941 7.406326445
-19.73530156 -29.05870941 8.406326445
-19.73530156 -29.05870941 9.406326445
-19.73530156 -29.05870941 10.40632644
-19.73530156 -29.05870941 11.40632644
-19.73530156 -29.05870941 12.40632644
-19.73530156 -29.05870941 13.40632644
-18.73530156 -30.05870941 13.40632644
-19.73530156 -29.05870941 14.40632644
-18.73530156 -30.05870941 14.40632644
-18.73530156 -29.05870941 15.40632644
-19.73530156 -28.05870941 -5.593673555
-18.73530156 -29.05870941 -5.593673555
-18.73530156 -28.05870941 -6.593673555
-19.73530156 -28.05870941 -4.593673555
-18.73530156 -29.05870941 -4.593673555
-19.73530156 -28.05870941 -3.593673555
-19.73530156 -28.05870941 -2.593673555
-19.73530156 -28.05870941 -1.593673555
-19.73530156 -28.05870941 -0.5936735555
-19.73530156 -28.05870941 0.4063264445
-19.73530156 -28.05870941 1.406326445
-19.73530156 -28.05870941 2.406326445
-19.73530156 -28.05870941 3.406326445
-19.73530156 -28.05870941 4.406326445
-19.73530156 -28.05870941 5.406326445
-19.73530156 -28.05870941 9.406326445
-19.73530156 -28.05870941 10.40632644
-19.73530156 -28.05870941 11.40632644
-19.73530156 -28.05870941 12.40632644
-19.73530156 -28.05870941 13.40632644
-19.73530156 -28.05870941 14.40632644
-19.73530156 -28.05870941 15.40632644
-18.73530156 -29.05870941 15.40632644
-18.73530156 -28.05870941 16.40632644
-19.73530156 -27.05870941 -7.593673555
-18.73530156 -28.05870941 -7.593673555
-18.73530156 -27.05870941 -8.593673555
-19.73530156 -27.05870941 -6.593673555
-18.73530156 -28.05870941 -6.593673555
-19.73530156 -27.05870941 -5.593673555
-19.73530156 -27.05870941 -4.593673555
-19.73530156 -27.05870941 -3.593673555
-19.73530156 -27.05870941 -2.593673555
-19.73530156 -27.05870941 -1.593673555
-19.73530156 -27.05870941 -0.5936735555
-19.73530156 -27.05870941 0.4063264445
-19.73530156 -27.05870941 1.406326445
-19.73530156 -27.05870941 14.40632644
-19.73530156 -27.05870941 15.40632644
-19.73530156 -27.05870941 16.40632644
-18.73530156 -28.05870941 16.40632644
-18.73530156 -27.05870941 17.40632644
-19.73530156 -26.05870941 -9.593673555
-18.73530156 -27.05870941 -9.593673555
-18.73530156 -26.05870941 -10.59367356
-19.73530156 -26.05870941 -8.593673555
-18.73530156 -27.05870941 -8.593673555
-19.73530156 -26.05870941 -7.593673555
-19.73530156 -26.05870941 -6.593673555
-19.73530156 -26.05870941 -5.593673555
-19.73530156 -26.05870941 -4.593673555
-19.73530156 -26.05870941 -3.593673555
-19.73530156 -26.05870941 -2.593673555
-19.73530156 -26.05870941 -1.593673555
-19.73530156 -26.05870941 -0.5936735555
-19.73530156 -26.05870941 16.40632644
-19.73530156 -26.05870941 17.40632644
-18.73530156 -27.05870941 17.40632644
-18.73530156 -26.05870941 18.40632644
-19.73530156 -25.05870941 -11.59367356
-18.73530156 -26.05870941 -11.59367356
-18.73530156 -25.05870941 -12.59367356
-19.73530156 -25.05870941 -10.59367356
-18.73530156 -26.05870941 -10.59367356
-19.73530156 -25.05870941 -9.593673555
-19.73530156 -25.05870941 -8.593673555
-19.73530156 -25.05870941 -7.593673555
-19.73530156 -25.05870941 -6.593673555
-19.73530156 -25.05870941 -5.593673555
-19.73530156 -25.05870941 -4.593673555
-19.73530156 -25.05870941 -3.593673555
-19.73530156 -25.05870941 -2.593673555
-19.73530156 -25.05870941 -1.593673555
-19.73530156 -25.05870941 17.40632644
-19.73530156 -25.05870941 18.40632644
-18.73530156 -26.05870941 18.40632644
-18.73530156 -25.05870941 19.40632644
-19.73530156 -24.05870941 -13.59367356
-18.73530156 -25.05870941 -13.59367356
-18.73530156 -24.05870941 -14.59367356
-19.73530156 -24.05870941 -12.59367356
-18.73530156 -25.05870941 -12.59367356
-19.73530156 -24.05870941 -11.59367356
-19.73530156 -24.05870941 -10.59367356
-19.73530156 -24.05870941 -9.593673555
-19.73530156 -24.05870941 -8.593673555
-19.73530156 -24.05870941 -7.593673555
-19.73530156 -24.05870941 -6.593673555
-19.73530156 -24.05870941 -5.593673555
-19.73530156 -24.05870941 -4.593673555
-19.73530156 -24.05870941 17.40632644
-19.73530156 -24.05870941 18.40632644
-18.73530156 -24.05870941 19.40632644
-19.73530156 -23.05870941 -14.59367356
-18.73530156 -24.05870941 -14.59367356
-18.73530156 -23.05870941 -15.59367356
-19.73530156 -23.05870941 -13.59367356
-19.73530156 -23.05870941 -12.59367356
-19.73530156 -23.05870941 -11.59367356
-19.73530156 -23.05870941 -10.59367356
-19.73530156 -23.05870941 -9.593673555
-19.73530156 -23.05870941 -8.593673555
-19.73530156 -23.05870941 -7.593673555
-19.73530156 -23.05870941 -6.593673555
-19.73530156 -23.05870941 18.40632644
-19.73530156 -23.05870941 19.40632644
-18.73530156 -24.05870941 19.40632644
-18.73530156 -23.05870941 20.40632644
-19.73530156 -22.05870941 -16.59367356
-18.73530156 -23.05870941 -16.59367356
-18.73530156 -22.05870941 -17.59367356
-19.73530156 -22.05870941 -15.59367356
-18.73530156 -23.05870941 -15.59367356
-19.73530156 -22.05870941 -14.59367356
-19.73530156 -22.05870941 -13.59367356
-19.73530156 -22.05870941 -12.59367356
-19.73530156 -22.05870941 -11.59367356
-19.73530156 -22.05870941 18.40632644
-19.73530156 -22.05870941 19.40632644
-18.73530156 -22.05870941 20.40632644
-19.73530156 -21.05870941 -19.59367356
-18.73530156 -22.05870941 -19.59367356
-18.73530156 -21.05870941 -20.59367356
-19.73530156 -21.05870941 -18.59367356
-18.73530156 -22.05870941 -18.59367356
-19.73530156 -21.05870941 -17.59367356
-18.73530156 -22.05870941 -17.59367356
-19.73530156 -21.05870941 -16.59367356
-19.73530156 -21.05870941 -15.59367356
-19.73530156 -21.05870941 -14.59367356
-19.73530156 -21.05870941 -13.59367356
-19.73530156 -21.05870941 18.40632644
-19.73530156 -21.05870941 19.40632644
-18.73530156 -21.05870941 20.40632644
-19.73530156 -20.05870941 -21.59367356
-18.73530156 -21.05870941 -21.59367356
-18.73530156 -20.05870941 -22.59367356
-19.73530156 -20.05870941 -20.59367356
-18.73530156 -21.05870941 -20.59367356
-19.73530156 -20.05870941 -19.59367356
-19.73530156 -20.05870941 -18.59367356
-19.73530156 -20.05870941 19.40632644
-19.73530156 -20.05870941 20.40632644
-18.73530156 -21.05870941 20.40632644
-18.73530156 -20.05870941 21.40632644
-19.73530156 -19.05870941 -22.59367356
-18.73530156 -20.05870941 -22.59367356
-18.73530156 -19.05870941 -23.59367356
-19.73530156 -19.05870941 -21.59367356
-19.73530156 -19.05870941 19.40632644
-19.73530156 -19.05870941 20.40632644
-18.73530156 -19.05870941 21.40632644
-19.73530156 -18.05870941 -24.59367356
-18.73530156 -19.05870941 -24.59367356
-18.73530156 -18.05870941 -25.59367356
-19.73530156 -18.05870941 -23.59367356
-18.73530156 -19.05870941 -23.59367356
-19.73530156 -18.05870941 -22.59367356
-19.73530156 -18.05870941 19.40632644
-19.73530156 -18.05870941 20.40632644
-18.73530156 -18.05870941 21.40632644
-19.73530156 -17.05870941 -26.59367356
-18.73530156 -18.05870941 -26.59367356
-18.73530156 -17.05870941 -27.59367356
-19.73530156 -17.05870941 -25.59367356
-18.73530156 -18.05870941 -25.59367356
-19.73530156 -17.05870941 -24.59367356
-19.73530156 -17.05870941 20.40632644
-19.73530156 -17.05870941 21.40632644
-18.73530156 -18.05870941 21.40632644
-18.73530156 -17.05870941 22.40632644
-19.73530156 -16.05870941 -26.59367356
-18.73530156 -16.05870941 -27.59367356
-19.73530156 -16.05870941 -25.59367356
-19.73530156 -16.05870941 20.40632644
-19.73530156 -16.05870941 21.40632644
-18.73530156 -16.05870941 22.40632644
-19.73530156 -15.05870941 -27.59367356
-18.73530156 -16.05870941 -27.59367356
-18.73530156 -15.05870941 -28.59367356
-19.73530156 -15.05870941 -26.59367356
-19.73530156 -15.05870941 20.40632644
-19.73530156 -15.05870941 21.40632644
-18.73530156 -15.05870941 22.40632644
-19.73530156 -14.05870941 -28.59367356
-18.73530156 -15.05870941 -28.59367356
-18.73530156 -14.05870941 -29.59367356
-19.73530156 -14.05870941 -27.59367356
-19.73530156 -14.05870941 21.40632644
-19.73530156 -14.05870941 22.40632644
-18.73530156 -15.05870941 22.40632644
-18.73530156 -14.05870941 23.40632644
-19.73530156 -13.05870941 -28.59367356
-18.73530156 -13.05870941 -29.59367356
-19.73530156 -13.05870941 22.40632644
-18.73530156 -13.05870941 23.40632644
-19.73530156 -12.05870941 -29.59367356
-18.73530156 -13.05870941 -29.59367356
-18.73530156 -12.05870941 -30.59367356
-19.73530156 -12.05870941 -28.59367356
-19.73530156 -12.05870941 22.40632644
-18.73530156 -12.05870941 23.40632644
-19.73530156 -11.05870941 -30.59367356
-18.73530156 -12.05870941 -30.59367356
-18.73530156 -11.05870941 -31.59367356
-19.73530156 -11.05870941 -29.59367356
-19.73530156 -11.05870941 22.40632644
-18.73530156 -11.05870941 23.40632644
-19.73530156 -10.05870941 -31.59367356
-18.73530156 -11.05870941 -31.59367356
-18.73530156 -10.05870941 -32.59367356
-19.73530156 -10.05870941 -30.59367356
-19.73530156 -10.05870941 -29.59367356
-19.73530156 -10.05870941 22.40632644
-18.73530156 -10.05870941 23.40632644
-19.73530156 -9.058709405 -32.59367356
-18.73530156 -10.05870941 -32.59367356
-18.73530156 -9.058709405 -33.59367356
-19.73530156 -9.058709405 -31.59367356
-19.73530156 -9.058709405 -30.59367356
-19.73530156 -9.058709405 -29.59367356
-19.73530156 -9.058709405 21.40632644
-18.73530156 -9.058709405 22.40632644
-18.73530156 -9.058709405 22.40632644
-19.73530156 -8.058709405 -33.59367356
-18.73530156 -9.058709405 -33.59367356
-18.73530156 -8.058709405 -34.59367356
-19.73530156 -8.058709405 -32.59367356
-19.73530156 -8.058709405 -31.59367356
-19.73530156 -8.058709405 -29.59367356
-19.73530156 -8.058709405 19.40632644
-19.73530156 -8.058709405 20.40632644
-18.73530156 -8.058709405 21.40632644
-18.73530156 -8.058709405 21.40632644
-19.73530156 -7.058709405 -33.59367356
-18.73530156 -7.058709405 -34.59367356
-19.73530156 -7.058709405 -32.59367356
-19.73530156 -7.058709405 -31.59367356
-19.73530156 -7.058709405 -29.59367356
-19.73530156 -7.058709405 18.40632644
-19.73530156 -7.058709405 19.40632644
-18.73530156 -7.058709405 20.40632644
-18.73530156 -7.058709405 20.40632644
-19.73530156 -6.058709405 -34.59367356
-18.73530156 -7.058709405 -34.59367356
-18.73530156 -6.058709405 -35.59367356
-19.73530156 -6.058709405 -33.59367356
-19.73530156 -6.058709405 -32.59367356
-19.73530156 -6.058709405 -29.59367356
-19.73530156 -6.058709405 18.40632644
-18.73530156 -6.058709405 19.40632644
-18.73530156 -6.058709405 19.40632644
-19.73530156 -5.058709405 -39.59367356
-18.73530156 -6.058709405 -39.59367356
-18.73530156 -5.058709405 -40.59367356
-18.73530156 -5.058709405 -38.59367356
-19.73530156 -5.058709405 -34.59367356
-18.73530156 -5.058709405 -35.59367356
-19.73530156 -5.058709405 -33.59367356
-19.73530156 -5.058709405 -32.59367356
-19.73530156 -5.058709405 -29.59367356
-19.73530156 -5.058709405 17.40632644
-19.73530156 -5.058709405 18.40632644
-18.73530156 -5.058709405 19.40632644
-19.73530156 -4.058709405 -39.59367356
-18.73530156 -4.058709405 -40.59367356
-18.73530156 -4.058709405 -38.59367356
-19.73530156 -4.058709405 -34.59367356
-18.73530156 -4.058709405 -35.59367356
-19.73530156 -4.058709405 -33.59367356
-19.73530156 -4.058709405 -32.59367356
-19.73530156 -4.058709405 -29.59367356
-19.73530156 -4.058709405 17.40632644
-18.73530156 -4.058709405 18.40632644
-18.73530156 -4.058709405 18.40632644
