# .PCD v0.7 - Point Cloud Data file format
VERSION 0.7
FIELDS x y z
SIZE 4 4 4
TYPE F F F
COUNT 1 1 1
WIDTH 1252
HEIGHT 1
VIEWPOINT 0 0 0 1 0 0 0
POINTS 1252
DATA ascii
-16.70865162 25.68517724 75.72969416
-16.70865162 25.68517724 75.72969416
-16.70865162 26.68517724 -63.27030584
-17.70865162 26.68517724 -62.27030584
-16.70865162 26.68517724 -63.27030584
-17.70865162 26.68517724 -61.27030584
-16.70865162 26.68517724 74.72969416
-16.70865162 26.68517724 74.72969416
-17.70865162 27.68517724 -62.27030584
-16.70865162 27.68517724 -63.27030584
-17.70865162 27.68517724 -61.27030584
-17.70865162 27.68517724 73.72969416
-16.70865162 27.68517724 74.72969416
-17.70865162 28.68517724 -62.27030584
-16.70865162 28.68517724 -63.27030584
-17.70865162 28.68517724 -61.27030584
-16.70865162 28.68517724 73.72969416
-16.70865162 28.68517724 73.72969416
-17.70865162 29.68517724 -62.27030584
-16.70865162 29.68517724 -63.27030584
-17.70865162 29.68517724 -61.27030584
-17.70865162 29.68517724 72.72969416
-16.70865162 29.68517724 73.72969416
-17.70865162 30.68517724 -62.27030584
-16.70865162 30.68517724 -63.27030584
-16.70865162 30.68517724 72.72969416
-16.70865162 30.68517724 72.72969416
-17.70865162 31.68517724 -62.27030584
-16.70865162 31.68517724 -63.27030584
-16.70865162 31.68517724 72.72969416
-17.70865162 32.68517724 -63.27030584
-16.70865162 31.68517724 -63.27030584
-16.70865162 32.68517724 -64.27030584
-17.70865162 32.68517724 -62.27030584
-16.70865162 32.68517724 71.72969416
-16.70865162 32.68517724 71.72969416
-17.70865162 33.68517724 -63.27030584
-16.70865162 33.68517724 -64.27030584
-17.70865162 33.68517724 -62.27030584
-16.70865162 33.68517724 71.72969416
-17.70865162 34.68517724 -63.27030584
-16.70865162 34.68517724 -64.27030584
-17.70865162 34.68517724 -62.27030584
-17.70865162 34.68517724 70.72969416
-16.70865162 34.68517724 71.72969416
-16.70865162 35.68517724 -63.27030584
-17.70865162 35.68517724 -62.27030584
-16.70865162 35.68517724 -63.27030584
-16.70865162 35.68517724 70.72969416
-16.70865162 35.68517724 70.72969416
-17.70865162 36.68517724 -62.27030584
-16.70865162 36.68517724 -63.27030584
-16.70865162 36.68517724 69.72969416
-16.70865162 36.68517724 69.72969416
-17.70865162 37.68517724 -62.27030584
-16.70865162 37.68517724 -63.27030584
-17.70865162 37.68517724 -61.27030584
-16.70865162 37.68517724 68.72969416
-16.70865162 37.68517724 68.72969416
-16.70865162 38.68517724 -62.27030584
-17.70865162 38.68517724 -61.27030584
-16.70865162 38.68517724 -62.27030584
-17.70865162 38.68517724 -60.27030584
-17.70865162 38.68517724 -2.270305839
-17.70865162 38.68517724 -1.270305839
-17.70865162 38.68517724 -0.2703058393
-17.70865162 38.68517724 0.7296941607
-17.70865162 38.68517724 1.729694161
-17.70865162 38.68517724 2.729694161
-17.70865162 38.68517724 3.729694161
-16.70865162 38.68517724 66.72969416
-16.70865162 38.68517724 66.72969416
-16.70865162 38.68517724 67.72969416
-16.70865162 39.68517724 -61.27030584
-16.70865162 39.68517724 -60.27030584
-17.70865162 39.68517724 -59.27030584
-16.70865162 39.68517724 -60.27030584
-17.70865162 39.68517724 -3.270305839
-17.70865162 39.68517724 -2.270305839
-17.70865162 39.68517724 -1.270305839
-17.70865162 39.68517724 -0.2703058393
-17.70865162 39.68517724 0.7296941607
-17.70865162 39.68517724 1.729694161
-17.70865162 39.68517724 2.729694161
-17.70865162 39.68517724 3.729694161
-17.70865162 39.68517724 4.729694161
-17.70865162 39.68517724 5.729694161
-16.70865162 39.68517724 65.72969416
-16.70865162 39.68517724 65.72969416
-16.70865162 40.68517724 -59.27030584
-17.70865162 40.68517724 -58.27030584
-16.70865162 40.68517724 -59.27030584
-17.70865162 40.68517724 -3.270305839
-17.70865162 40.68517724 -2.270305839
-17.70865162 40.68517724 -1.270305839
-17.70865162 40.68517724 -0.2703058393
-17.70865162 40.68517724 0.7296941607
-17.70865162 40.68517724 1.729694161
-17.70865162 40.68517724 2.729694161
-17.70865162 40.68517724 3.729694161
-17.70865162 40.68517724 4.729694161
-17.70865162 40.68517724 5.729694161
-17.70865162 40.68517724 6.729694161
-16.70865162 40.68517724 64.72969416
-16.70865162 40.68517724 64.72969416
-16.70865162 41.68517724 -58.27030584
-17.70865162 41.68517724 -57.27030584
-16.70865162 41.68517724 -58.27030584
-17.70865162 41.68517724 -3.270305839
-17.70865162 41.68517724 -2.270305839
-17.70865162 41.68517724 -1.270305839
-17.70865162 41.68517724 -0.2703058393
-17.70865162 41.68517724 0.7296941607
-17.70865162 41.68517724 1.729694161
-17.70865162 41.68517724 2.729694161
-17.70865162 41.68517724 3.729694161
-17.70865162 41.68517724 4.729694161
-17.70865162 41.68517724 5.729694161
-17.70865162 41.68517724 6.729694161
-17.70865162 41.68517724 7.729694161
-16.70865162 41.68517724 63.72969416
-16.70865162 41.68517724 63.72969416
-16.70865162 42.68517724 -57.27030584
-16.70865162 42.68517724 -56.27030584
-17.70865162 42.68517724 -55.27030584
-16.70865162 42.68517724 -56.27030584
-17.70865162 42.68517724 -3.270305839
-17.70865162 42.68517724 -2.270305839
-17.70865162 42.68517724 -1.270305839
-17.70865162 42.68517724 -0.2703058393
-17.70865162 42.68517724 0.7296941607
-17.70865162 42.68517724 1.729694161
-17.70865162 42.68517724 2.729694161
-17.70865162 42.68517724 3.729694161
-17.70865162 42.68517724 4.729694161
-17.70865162 42.68517724 5.729694161
-17.70865162 42.68517724 6.729694161
-17.70865162 42.68517724 7.729694161
-17.70865162 42.68517724 8.729694161
-17.70865162 42.68517724 62.72969416
-16.70865162 42.68517724 63.72969416
-16.70865162 43.68517724 -55.27030584
-17.70865162 43.68517724 -54.27030584
-16.70865162 43.68517724 -55.27030584
-17.70865162 43.68517724 -53.27030584
-17.70865162 43.68517724 -3.270305839
-17.70865162 43.68517724 -2.270305839
-17.70865162 43.68517724 -1.270305839
-17.70865162 43.68517724 -0.2703058393
-17.70865162 43.68517724 0.7296941607
-17.70865162 43.68517724 1.729694161
-17.70865162 43.68517724 2.729694161
-17.70865162 43.68517724 3.729694161
-17.70865162 43.68517724 4.729694161
-16.70865162 43.68517724 5.729694161
-16.70865162 43.68517724 5.729694161
-16.70865162 43.68517724 6.729694161
-17.70865162 43.68517724 7.729694161
-16.70865162 43.68517724 6.729694161
-17.70865162 43.68517724 8.729694161
-17.70865162 43.68517724 9.729694161
-17.70865162 43.68517724 10.72969416
-16.70865162 43.68517724 62.72969416
-16.70865162 43.68517724 62.72969416
-16.70865162 44.68517724 -54.27030584
-16.70865162 44.68517724 -53.27030584
-17.70865162 44.68517724 -52.27030584
-16.70865162 44.68517724 -53.27030584
-17.70865162 44.68517724 -3.270305839
-17.70865162 44.68517724 -2.270305839
-17.70865162 44.68517724 -1.270305839
-17.70865162 44.68517724 -0.2703058393
-17.70865162 44.68517724 0.7296941607
-17.70865162 44.68517724 1.729694161
-17.70865162 44.68517724 2.729694161
-16.70865162 44.68517724 3.729694161
-16.70865162 44.68517724 3.729694161
-16.70865162 44.68517724 4.729694161
-16.70865162 44.68517724 7.729694161
-16.70865162 44.68517724 8.729694161
-16.70865162 44.68517724 9.729694161
-16.70865162 44.68517724 10.72969416
-16.70865162 44.68517724 11.72969416
-17.70865162 44.68517724 12.72969416
-16.70865162 44.68517724 11.72969416
-17.70865162 44.68517724 13.72969416
-16.70865162 44.68517724 60.72969416
-16.70865162 44.68517724 60.72969416
-16.70865162 44.68517724 61.72969416
-16.70865162 45.68517724 -52.27030584
-17.70865162 45.68517724 -51.27030584
-16.70865162 45.68517724 -52.27030584
-17.70865162 45.68517724 -50.27030584
-17.70865162 45.68517724 -9.270305839
-17.70865162 45.68517724 -8.270305839
-17.70865162 45.68517724 -7.270305839
-17.70865162 45.68517724 -5.270305839
-17.70865162 45.68517724 -4.270305839
-17.70865162 45.68517724 -3.270305839
-17.70865162 45.68517724 -2.270305839
-17.70865162 45.68517724 -1.270305839
-17.70865162 45.68517724 -0.2703058393
-17.70865162 45.68517724 0.7296941607
-17.70865162 45.68517724 1.729694161
-16.70865162 45.68517724 2.729694161
-16.70865162 45.68517724 2.729694161
-16.70865162 45.68517724 12.72969416
-16.70865162 45.68517724 13.72969416
-16.70865162 45.68517724 14.72969416
-16.70865162 45.68517724 15.72969416
-17.70865162 45.68517724 16.72969416
-16.70865162 45.68517724 15.72969416
-16.70865162 45.68517724 57.72969416
-16.70865162 45.68517724 57.72969416
-16.70865162 45.68517724 58.72969416
-16.70865162 45.68517724 59.72969416
-16.70865162 46.68517724 -51.27030584
-16.70865162 46.68517724 -50.27030584
-17.70865162 46.68517724 -49.27030584
-16.70865162 46.68517724 -50.27030584
-17.70865162 46.68517724 -10.27030584
-17.70865162 46.68517724 -9.270305839
-17.70865162 46.68517724 -8.270305839
-17.70865162 46.68517724 -7.270305839
-17.70865162 46.68517724 -6.270305839
-17.70865162 46.68517724 -5.270305839
-17.70865162 46.68517724 -4.270305839
-17.70865162 46.68517724 -3.270305839
-17.70865162 46.68517724 -2.270305839
-17.70865162 46.68517724 -1.270305839
-17.70865162 46.68517724 -0.2703058393
-17.70865162 46.68517724 0.7296941607
-17.70865162 46.68517724 1.729694161
-16.70865162 46.68517724 2.729694161
-16.70865162 46.68517724 16.72969416
-16.70865162 46.68517724 17.72969416
-16.70865162 46.68517724 18.72969416
-17.70865162 46.68517724 19.72969416
-16.70865162 46.68517724 18.72969416
-17.70865162 46.68517724 52.72969416
-16.70865162 46.68517724 53.72969416
-16.70865162 46.68517724 53.72969416
-16.70865162 46.68517724 54.72969416
-16.70865162 46.68517724 55.72969416
-16.70865162 46.68517724 56.72969416
-16.70865162 47.68517724 -49.27030584
-17.70865162 47.68517724 -48.27030584
-16.70865162 47.68517724 -49.27030584
-17.70865162 47.68517724 -11.27030584
-17.70865162 47.68517724 -10.27030584
-17.70865162 47.68517724 -9.270305839
-17.70865162 47.68517724 -8.270305839
-17.70865162 47.68517724 -7.270305839
-17.70865162 47.68517724 -6.270305839
-17.70865162 47.68517724 -5.270305839
-17.70865162 47.68517724 -4.270305839
-17.70865162 47.68517724 -3.270305839
-17.70865162 47.68517724 -2.270305839
-17.70865162 47.68517724 -1.270305839
-17.70865162 47.68517724 -0.2703058393
-17.70865162 47.68517724 0.7296941607
-16.70865162 47.68517724 1.729694161
-16.70865162 47.68517724 1.729694161
-16.70865162 47.68517724 19.72969416
-16.70865162 47.68517724 20.72969416
-16.70865162 47.68517724 21.72969416
-17.70865162 47.68517724 22.72969416
-16.70865162 47.68517724 21.72969416
-17.70865162 47.68517724 47.72969416
-16.70865162 47.68517724 48.72969416
-16.70865162 47.68517724 48.72969416
-16.70865162 47.68517724 49.72969416
-16.70865162 47.68517724 50.72969416
-16.70865162 47.68517724 51.72969416
-16.70865162 47.68517724 52.72969416
-16.70865162 48.68517724 -48.27030584
-17.70865162 48.68517724 -47.27030584
-16.70865162 48.68517724 -48.27030584
-16.70865162 48.68517724 -25.27030584
-16.70865162 48.68517724 -25.27030584
-16.70865162 48.68517724 -25.27030584
-16.70865162 48.68517724 -25.27030584
-17.70865162 48.68517724 -12.27030584
-17.70865162 48.68517724 -11.27030584
-17.70865162 48.68517724 -10.27030584
-17.70865162 48.68517724 -9.270305839
-17.70865162 48.68517724 -8.270305839
-17.70865162 48.68517724 -7.270305839
-17.70865162 48.68517724 -6.270305839
-17.70865162 48.68517724 -5.270305839
-17.70865162 48.68517724 -4.270305839
-17.70865162 48.68517724 -3.270305839
-17.70865162 48.68517724 -2.270305839
-17.70865162 48.68517724 -1.270305839
-17.70865162 48.68517724 -0.2703058393
-17.70865162 48.68517724 0.7296941607
-16.70865162 48.68517724 1.729694161
-16.70865162 48.68517724 22.72969416
-16.70865162 48.68517724 23.72969416
-17.70865162 48.68517724 24.72969416
-16.70865162 48.68517724 23.72969416
-16.70865162 48.68517724 37.72969416
-16.70865162 48.68517724 37.72969416
-16.70865162 48.68517724 37.72969416
-16.70865162 48.68517724 38.72969416
-16.70865162 48.68517724 38.72969416
-16.70865162 48.68517724 39.72969416
-16.70865162 48.68517724 40.72969416
-16.70865162 48.68517724 41.72969416
-16.70865162 48.68517724 42.72969416
-16.70865162 48.68517724 43.72969416
-16.70865162 48.68517724 44.72969416
-16.70865162 48.68517724 45.72969416
-16.70865162 48.68517724 46.72969416
-16.70865162 48.68517724 47.72969416
-16.70865162 49.68517724 -47.27030584
-16.70865162 49.68517724 -46.27030584
-16.70865162 49.68517724 -45.27030584
-16.70865162 49.68517724 -45.27030584
-16.70865162 49.68517724 -45.27030584
-16.70865162 49.68517724 -25.27030584
-16.70865162 49.68517724 -25.27030584
-16.70865162 49.68517724 -25.27030584
-17.70865162 49.68517724 -13.27030584
-17.70865162 49.68517724 -12.27030584
-17.70865162 49.68517724 -11.27030584
-17.70865162 49.68517724 -10.27030584
-17.70865162 49.68517724 -9.270305839
-17.70865162 49.68517724 -8.270305839
-17.70865162 49.68517724 -7.270305839
-17.70865162 49.68517724 -6.270305839
-17.70865162 49.68517724 -5.270305839
-17.70865162 49.68517724 -4.270305839
-17.70865162 49.68517724 -3.270305839
-17.70865162 49.68517724 -2.270305839
-17.70865162 49.68517724 -1.270305839
-17.70865162 49.68517724 -0.2703058393
-17.70865162 49.68517724 0.7296941607
-16.70865162 49.68517724 1.729694161
-16.70865162 49.68517724 24.72969416
-16.70865162 49.68517724 25.72969416
-16.70865162 49.68517724 25.72969416
-16.70865162 49.68517724 33.72969416
-16.70865162 49.68517724 33.72969416
-16.70865162 49.68517724 34.72969416
-16.70865162 49.68517724 35.72969416
-16.70865162 49.68517724 36.72969416
-16.70865162 50.68517724 -45.27030584
-16.70865162 50.68517724 -45.27030584
-16.70865162 50.68517724 -25.27030584
-16.70865162 50.68517724 -25.27030584
-16.70865162 50.68517724 -24.27030584
-16.70865162 50.68517724 -24.27030584
-16.70865162 50.68517724 -24.27030584
-17.70865162 50.68517724 -14.27030584
-17.70865162 50.68517724 -13.27030584
-17.70865162 50.68517724 -12.27030584
-16.70865162 50.68517724 -11.27030584
-16.70865162 50.68517724 -11.27030584
-16.70865162 50.68517724 -10.27030584
-16.70865162 50.68517724 -9.270305839
-16.70865162 50.68517724 -8.270305839
-17.70865162 50.68517724 -7.270305839
-16.70865162 50.68517724 -8.270305839
-17.70865162 50.68517724 -6.270305839
-17.70865162 50.68517724 -5.270305839
-17.70865162 50.68517724 -4.270305839
-17.70865162 50.68517724 -3.270305839
-17.70865162 50.68517724 -2.270305839
-17.70865162 50.68517724 -1.270305839
-17.70865162 50.68517724 -0.2703058393
-17.70865162 50.68517724 0.7296941607
-16.70865162 50.68517724 1.729694161
-16.70865162 50.68517724 26.72969416
-16.70865162 50.68517724 27.72969416
-16.70865162 50.68517724 27.72969416
-16.70865162 50.68517724 30.72969416
-16.70865162 50.68517724 30.72969416
-16.70865162 50.68517724 31.72969416
-16.70865162 50.68517724 32.72969416
-16.70865162 51.68517724 -45.27030584
-16.70865162 51.68517724 -45.27030584
-16.70865162 51.68517724 -25.27030584
-16.70865162 51.68517724 -25.27030584
-16.70865162 51.68517724 -24.27030584
-16.70865162 51.68517724 -24.27030584
-17.70865162 51.68517724 -15.27030584
-17.70865162 51.68517724 -14.27030584
-17.70865162 51.68517724 -13.27030584
-16.70865162 51.68517724 -12.27030584
-16.70865162 51.68517724 -12.27030584
-17.70865162 51.68517724 -7.270305839
-16.70865162 51.68517724 -8.270305839
-17.70865162 51.68517724 -6.270305839
-17.70865162 51.68517724 -5.270305839
-17.70865162 51.68517724 -4.270305839
-17.70865162 51.68517724 -3.270305839
-17.70865162 51.68517724 -2.270305839
-17.70865162 51.68517724 -1.270305839
-17.70865162 51.68517724 -0.2703058393
-16.70865162 51.68517724 0.7296941607
-16.70865162 51.68517724 0.7296941607
-16.70865162 51.68517724 28.72969416
-16.70865162 51.68517724 29.72969416
-16.70865162 51.68517724 -45.27030584
-16.70865162 52.68517724 -46.27030584
-16.70865162 52.68517724 -26.27030584
-16.70865162 52.68517724 -26.27030584
-16.70865162 52.68517724 -26.27030584
-16.70865162 52.68517724 -23.27030584
-17.70865162 52.68517724 -22.27030584
-16.70865162 52.68517724 -23.27030584
-17.70865162 52.68517724 -16.27030584
-17.70865162 52.68517724 -15.27030584
-17.70865162 52.68517724 -14.27030584
-16.70865162 52.68517724 -13.27030584
-16.70865162 52.68517724 -13.27030584
-16.70865162 52.68517724 -7.270305839
-16.70865162 52.68517724 -6.270305839
-17.70865162 52.68517724 -5.270305839
-16.70865162 52.68517724 -6.270305839
-17.70865162 52.68517724 -4.270305839
-17.70865162 52.68517724 -3.270305839
-17.70865162 52.68517724 -2.270305839
-17.70865162 52.68517724 -1.270305839
-16.70865162 52.68517724 -0.2703058393
-16.70865162 52.68517724 -0.2703058393
-16.70865162 53.68517724 -46.27030584
-17.70865162 53.68517724 -27.27030584
-16.70865162 53.68517724 -26.27030584
-16.70865162 53.68517724 -22.27030584
-17.70865162 53.68517724 -21.27030584
-16.70865162 53.68517724 -22.27030584
-17.70865162 53.68517724 -20.27030584
-17.70865162 53.68517724 -17.27030584
-17.70865162 53.68517724 -16.27030584
-17.70865162 53.68517724 -15.27030584
-16.70865162 53.68517724 -14.27030584
-16.70865162 53.68517724 -14.27030584
-16.70865162 53.68517724 -5.270305839
-16.70865162 53.68517724 -4.270305839
-16.70865162 53.68517724 -3.270305839
-16.70865162 53.68517724 -2.270305839
-16.70865162 53.68517724 -1.270305839
-16.70865162 54.68517724 -46.27030584
-17.70865162 54.68517724 -28.27030584
-16.70865162 54.68517724 -27.27030584
-16.70865162 54.68517724 -27.27030584
-16.70865162 54.68517724 -21.27030584
-17.70865162 54.68517724 -20.27030584
-16.70865162 54.68517724 -21.27030584
-17.70865162 54.68517724 -19.27030584
-17.70865162 54.68517724 -18.27030584
-17.70865162 54.68517724 -17.27030584
-17.70865162 54.68517724 -16.27030584
-17.70865162 54.68517724 -15.27030584
-16.70865162 54.68517724 -14.27030584
-16.70865162 55.68517724 -46.27030584
-17.70865162 55.68517724 -30.27030584
-17.70865162 55.68517724 -29.27030584
-16.70865162 55.68517724 -28.27030584
-16.70865162 55.68517724 -28.27030584
-16.70865162 55.68517724 -20.27030584
-17.70865162 55.68517724 -19.27030584
-16.70865162 55.68517724 -20.27030584
-17.70865162 55.68517724 -18.27030584
-16.70865162 55.68517724 -17.27030584
-16.70865162 55.68517724 -17.27030584
-16.70865162 55.68517724 -16.27030584
-16.70865162 55.68517724 -15.27030584
-16.70865162 56.68517724 -46.27030584
-17.70865162 56.68517724 -31.27030584
-17.70865162 56.68517724 -30.27030584
-16.70865162 56.68517724 -29.27030584
-16.70865162 56.68517724 -29.27030584
-16.70865162 56.68517724 -19.27030584
-16.70865162 56.68517724 -18.27030584
-16.70865162 57.68517724 -46.27030584
-17.70865162 57.68517724 -31.27030584
-16.70865162 57.68517724 -30.27030584
-16.70865162 57.68517724 -30.27030584
-16.70865162 58.68517724 -45.27030584
-16.70865162 58.68517724 -45.27030584
-17.70865162 58.68517724 -32.27030584
-17.70865162 58.68517724 -31.27030584
-16.70865162 58.68517724 -30.27030584
-16.70865162 59.68517724 -45.27030584
-17.70865162 59.68517724 -32.27030584
-16.70865162 59.68517724 -31.27030584
-16.70865162 59.68517724 -31.27030584
-16.70865162 60.68517724 -45.27030584
-17.70865162 60.68517724 -33.27030584
-17.70865162 60.68517724 -32.27030584
-16.70865162 60.68517724 -31.27030584
-16.70865162 61.68517724 -44.27030584
-16.70865162 61.68517724 -44.27030584
-17.70865162 61.68517724 -33.27030584
-16.70865162 61.68517724 -32.27030584
-16.70865162 61.68517724 -32.27030584
-16.70865162 62.68517724 -43.27030584
-16.70865162 62.68517724 -42.27030584
-16.70865162 62.68517724 -41.27030584
-16.70865162 62.68517724 -40.27030584
-16.70865162 62.68517724 -39.27030584
-17.70865162 62.68517724 -38.27030584
-16.70865162 62.68517724 -39.27030584
-17.70865162 62.68517724 -37.27030584
-17.70865162 62.68517724 -36.27030584
-17.70865162 62.68517724 -35.27030584
-17.70865162 62.68517724 -34.27030584
-16.70865162 62.68517724 -33.27030584
-16.70865162 62.68517724 -33.27030584
-16.70865162 63.68517724 -38.27030584
-16.70865162 63.68517724 -37.27030584
-16.70865162 63.68517724 -36.27030584
-16.70865162 63.68517724 -35.27030584
-16.70865162 63.68517724 -34.27030584
-16.70865162 -53.31482276 44.72969416
-15.70865162 -54.31482276 44.72969416
-15.70865162 -53.31482276 43.72969416
-16.70865162 -53.31482276 45.72969416
-15.70865162 -54.31482276 45.72969416
-16.70865162 -53.31482276 46.72969416
-15.70865162 -54.31482276 46.72969416
-16.70865162 -53.31482276 47.72969416
-15.70865162 -54.31482276 47.72969416
-15.70865162 -53.31482276 48.72969416
-16.70865162 -52.31482276 37.72969416
-15.70865162 -53.31482276 37.72969416
-15.70865162 -52.31482276 36.72969416
-16.70865162 -52.31482276 38.72969416
-15.70865162 -53.31482276 38.72969416
-16.70865162 -52.31482276 39.72969416
-15.70865162 -53.31482276 39.72969416
-16.70865162 -52.31482276 40.72969416
-15.70865162 -53.31482276 40.72969416
-16.70865162 -52.31482276 41.72969416
-15.70865162 -53.31482276 41.72969416
-16.70865162 -52.31482276 42.72969416
-15.70865162 -53.31482276 42.72969416
-16.70865162 -52.31482276 43.72969416
-15.70865162 -53.31482276 43.72969416
-16.70865162 -52.31482276 44.72969416
-16.70865162 -52.31482276 45.72969416
-16.70865162 -52.31482276 46.72969416
-16.70865162 -52.31482276 47.72969416
-16.70865162 -52.31482276 48.72969416
-15.70865162 -53.31482276 48.72969416
-15.70865162 -52.31482276 49.72969416
-16.70865162 -51.31482276 35.72969416
-15.70865162 -52.31482276 35.72969416
-15.70865162 -51.31482276 34.72969416
-16.70865162 -51.31482276 36.72969416
-15.70865162 -52.31482276 36.72969416
-16.70865162 -51.31482276 37.72969416
-16.70865162 -51.31482276 38.72969416
-16.70865162 -51.31482276 39.72969416
-16.70865162 -51.31482276 40.72969416
-16.70865162 -51.31482276 41.72969416
-16.70865162 -51.31482276 42.72969416
-16.70865162 -51.31482276 43.72969416
-16.70865162 -51.31482276 44.72969416
-16.70865162 -51.31482276 45.72969416
-16.70865162 -51.31482276 46.72969416
-16.70865162 -51.31482276 47.72969416
-16.70865162 -51.31482276 48.72969416
-16.70865162 -51.31482276 49.72969416
-15.70865162 -52.31482276 49.72969416
-15.70865162 -51.31482276 50.72969416
-16.70865162 -50.31482276 34.72969416
-15.70865162 -51.31482276 34.72969416
-15.70865162 -50.31482276 33.72969416
-16.70865162 -50.31482276 35.72969416
-16.70865162 -50.31482276 36.72969416
-16.70865162 -50.31482276 37.72969416
-16.70865162 -50.31482276 38.72969416
-16.70865162 -50.31482276 39.72969416
-16.70865162 -50.31482276 40.72969416
-16.70865162 -50.31482276 46.72969416
-16.70865162 -50.31482276 47.72969416
-16.70865162 -50.31482276 48.72969416
-16.70865162 -50.31482276 49.72969416
-15.70865162 -50.31482276 50.72969416
-16.70865162 -49.31482276 33.72969416
-15.70865162 -50.31482276 33.72969416
-15.70865162 -49.31482276 32.72969416
-16.70865162 -49.31482276 34.72969416
-16.70865162 -49.31482276 35.72969416
-16.70865162 -49.31482276 36.72969416
-16.70865162 -49.31482276 37.72969416
-16.70865162 -49.31482276 38.72969416
-16.70865162 -49.31482276 39.72969416
-16.70865162 -49.31482276 47.72969416
-16.70865162 -49.31482276 48.72969416
-16.70865162 -49.31482276 49.72969416
-16.70865162 -49.31482276 50.72969416
-15.70865162 -50.31482276 50.72969416
-15.70865162 -49.31482276 51.72969416
-16.70865162 -48.31482276 32.72969416
-15.70865162 -49.31482276 32.72969416
-15.70865162 -48.31482276 31.72969416
-16.70865162 -48.31482276 33.72969416
-16.70865162 -48.31482276 34.72969416
-16.70865162 -48.31482276 35.72969416
-16.70865162 -48.31482276 36.72969416
-16.70865162 -48.31482276 37.72969416
-16.70865162 -48.31482276 38.72969416
-16.70865162 -48.31482276 39.72969416
-16.70865162 -48.31482276 48.72969416
-16.70865162 -48.31482276 49.72969416
-16.70865162 -48.31482276 50.72969416
-15.70865162 -48.31482276 51.72969416
-16.70865162 -47.31482276 30.72969416
-15.70865162 -48.31482276 30.72969416
-15.70865162 -47.31482276 29.72969416
-16.70865162 -47.31482276 31.72969416
-15.70865162 -48.31482276 31.72969416
-16.70865162 -47.31482276 32.72969416
-16.70865162 -47.31482276 33.72969416
-16.70865162 -47.31482276 34.72969416
-16.70865162 -47.31482276 35.72969416
-16.70865162 -47.31482276 36.72969416
-16.70865162 -47.31482276 48.72969416
-16.70865162 -47.31482276 49.72969416
-16.70865162 -47.31482276 50.72969416
-15.70865162 -47.31482276 51.72969416
-16.70865162 -46.31482276 29.72969416
-15.70865162 -47.31482276 29.72969416
-15.70865162 -46.31482276 28.72969416
-16.70865162 -46.31482276 30.72969416
-16.70865162 -46.31482276 31.72969416
-16.70865162 -46.31482276 32.72969416
-16.70865162 -46.31482276 49.72969416
-16.70865162 -46.31482276 50.72969416
-16.70865162 -46.31482276 51.72969416
-15.70865162 -47.31482276 51.72969416
-15.70865162 -46.31482276 52.72969416
-16.70865162 -45.31482276 28.72969416
-15.70865162 -46.31482276 28.72969416
-15.70865162 -45.31482276 27.72969416
-16.70865162 -45.31482276 29.72969416
-16.70865162 -45.31482276 30.72969416
-16.70865162 -45.31482276 50.72969416
-16.70865162 -45.31482276 51.72969416
-15.70865162 -45.31482276 52.72969416
-16.70865162 -44.31482276 26.72969416
-15.70865162 -45.31482276 26.72969416
-15.70865162 -44.31482276 25.72969416
-16.70865162 -44.31482276 27.72969416
-15.70865162 -45.31482276 27.72969416
-16.70865162 -44.31482276 28.72969416
-16.70865162 -44.31482276 29.72969416
-16.70865162 -44.31482276 50.72969416
-16.70865162 -44.31482276 51.72969416
-16.70865162 -44.31482276 52.72969416
-15.70865162 -45.31482276 52.72969416
-15.70865162 -44.31482276 53.72969416
-16.70865162 -43.31482276 25.72969416
-15.70865162 -44.31482276 25.72969416
-15.70865162 -43.31482276 24.72969416
-16.70865162 -43.31482276 26.72969416
-16.70865162 -43.31482276 27.72969416
-16.70865162 -43.31482276 28.72969416
-16.70865162 -43.31482276 52.72969416
-16.70865162 -43.31482276 53.72969416
-15.70865162 -44.31482276 53.72969416
-15.70865162 -43.31482276 54.72969416
-16.70865162 -42.31482276 24.72969416
-15.70865162 -43.31482276 24.72969416
-15.70865162 -42.31482276 23.72969416
-16.70865162 -42.31482276 25.72969416
-16.70865162 -42.31482276 26.72969416
-16.70865162 -42.31482276 27.72969416
-16.70865162 -42.31482276 53.72969416
-16.70865162 -42.31482276 54.72969416
-15.70865162 -43.31482276 54.72969416
-16.70865162 -42.31482276 55.72969416
-15.70865162 -43.31482276 55.72969416
-15.70865162 -42.31482276 56.72969416
-16.70865162 -41.31482276 23.72969416
-15.70865162 -42.31482276 23.72969416
-15.70865162 -41.31482276 22.72969416
-16.70865162 -41.31482276 24.72969416
-16.70865162 -41.31482276 25.72969416
-16.70865162 -41.31482276 55.72969416
-16.70865162 -41.31482276 56.72969416
-15.70865162 -42.31482276 56.72969416
-16.70865162 -41.31482276 57.72969416
-15.70865162 -42.31482276 57.72969416
-15.70865162 -41.31482276 58.72969416
-16.70865162 -40.31482276 19.72969416
-15.70865162 -41.31482276 19.72969416
-15.70865162 -40.31482276 18.72969416
-16.70865162 -40.31482276 20.72969416
-15.70865162 -41.31482276 20.72969416
-16.70865162 -40.31482276 21.72969416
-15.70865162 -41.31482276 21.72969416
-16.70865162 -40.31482276 22.72969416
-15.70865162 -41.31482276 22.72969416
-16.70865162 -40.31482276 23.72969416
-16.70865162 -40.31482276 57.72969416
-16.70865162 -40.31482276 58.72969416
-15.70865162 -41.31482276 58.72969416
-16.70865162 -40.31482276 59.72969416
-15.70865162 -41.31482276 59.72969416
-15.70865162 -40.31482276 60.72969416
-16.70865162 -39.31482276 14.72969416
-15.70865162 -40.31482276 14.72969416
-15.70865162 -39.31482276 13.72969416
-16.70865162 -39.31482276 15.72969416
-15.70865162 -40.31482276 15.72969416
-16.70865162 -39.31482276 16.72969416
-15.70865162 -40.31482276 16.72969416
-16.70865162 -39.31482276 17.72969416
-15.70865162 -40.31482276 17.72969416
-16.70865162 -39.31482276 18.72969416
-15.70865162 -40.31482276 18.72969416
-16.70865162 -39.31482276 59.72969416
-16.70865162 -39.31482276 60.72969416
-15.70865162 -40.31482276 60.72969416
-16.70865162 -39.31482276 61.72969416
-15.70865162 -40.31482276 61.72969416
-15.70865162 -39.31482276 62.72969416
-16.70865162 -38.31482276 11.72969416
-15.70865162 -39.31482276 11.72969416
-15.70865162 -38.31482276 10.72969416
-16.70865162 -38.31482276 12.72969416
-15.70865162 -39.31482276 12.72969416
-16.70865162 -38.31482276 13.72969416
-15.70865162 -39.31482276 13.72969416
-16.70865162 -38.31482276 14.72969416
-16.70865162 -38.31482276 15.72969416
-16.70865162 -38.31482276 61.72969416
-15.70865162 -38.31482276 62.72969416
-16.70865162 -37.31482276 11.72969416
-15.70865162 -37.31482276 10.72969416
-16.70865162 -37.31482276 12.72969416
-16.70865162 -37.31482276 13.72969416
-16.70865162 -37.31482276 14.72969416
-16.70865162 -37.31482276 15.72969416
-16.70865162 -37.31482276 62.72969416
-15.70865162 -38.31482276 62.72969416
-15.70865162 -37.31482276 63.72969416
-16.70865162 -36.31482276 11.72969416
-15.70865162 -36.31482276 10.72969416
-16.70865162 -36.31482276 12.72969416
-16.70865162 -36.31482276 13.72969416
-16.70865162 -36.31482276 14.72969416
-16.70865162 -36.31482276 15.72969416
-15.70865162 -36.31482276 63.72969416
-16.70865162 -35.31482276 11.72969416
-15.70865162 -35.31482276 10.72969416
-16.70865162 -35.31482276 12.72969416
-16.70865162 -35.31482276 13.72969416
-16.70865162 -35.31482276 14.72969416
-16.70865162 -35.31482276 15.72969416
-16.70865162 -35.31482276 63.72969416
-15.70865162 -36.31482276 63.72969416
-15.70865162 -35.31482276 64.72969416
-16.70865162 -34.31482276 11.72969416
-15.70865162 -34.31482276 10.72969416
-16.70865162 -34.31482276 12.72969416
-16.70865162 -34.31482276 13.72969416
-16.70865162 -34.31482276 14.72969416
-16.70865162 -34.31482276 15.72969416
-15.70865162 -34.31482276 64.72969416
-16.70865162 -33.31482276 10.72969416
-15.70865162 -34.31482276 10.72969416
-15.70865162 -33.31482276 9.729694161
-16.70865162 -33.31482276 11.72969416
-16.70865162 -33.31482276 12.72969416
-16.70865162 -33.31482276 13.72969416
-16.70865162 -33.31482276 14.72969416
-16.70865162 -33.31482276 15.72969416
-15.70865162 -33.31482276 64.72969416
-16.70865162 -32.31482276 -31.27030584
-15.70865162 -33.31482276 -31.27030584
-15.70865162 -32.31482276 -32.27030584
-16.70865162 -32.31482276 -30.27030584
-15.70865162 -33.31482276 -30.27030584
-16.70865162 -32.31482276 -29.27030584
-15.70865162 -33.31482276 -29.27030584
-16.70865162 -32.31482276 -28.27030584
-15.70865162 -33.31482276 -28.27030584
-16.70865162 -32.31482276 -27.27030584
-15.70865162 -33.31482276 -27.27030584
-16.70865162 -32.31482276 -26.27030584
-15.70865162 -33.31482276 -26.27030584
-16.70865162 -32.31482276 -25.27030584
-15.70865162 -33.31482276 -25.27030584
-16.70865162 -32.31482276 -24.27030584
-15.70865162 -33.31482276 -24.27030584
-16.70865162 -32.31482276 -23.27030584
-15.70865162 -33.31482276 -23.27030584
-16.70865162 -32.31482276 -22.27030584
-15.70865162 -33.31482276 -22.27030584
-16.70865162 -32.31482276 -21.27030584
-15.70865162 -33.31482276 -21.27030584
-15.70865162 -32.31482276 -20.27030584
-16.70865162 -32.31482276 9.729694161
-15.70865162 -33.31482276 9.729694161
-15.70865162 -32.31482276 8.729694161
-16.70865162 -32.31482276 10.72969416
-16.70865162 -32.31482276 11.72969416
-16.70865162 -32.31482276 12.72969416
-16.70865162 -32.31482276 13.72969416
-16.70865162 -32.31482276 14.72969416
-15.70865162 -32.31482276 64.72969416
-16.70865162 -31.31482276 -36.27030584
-15.70865162 -32.31482276 -36.27030584
-15.70865162 -31.31482276 -37.27030584
-16.70865162 -31.31482276 -35.27030584
-15.70865162 -32.31482276 -35.27030584
-16.70865162 -31.31482276 -34.27030584
-15.70865162 -32.31482276 -34.27030584
-16.70865162 -31.31482276 -33.27030584
-15.70865162 -32.31482276 -33.27030584
-16.70865162 -31.31482276 -32.27030584
-15.70865162 -32.31482276 -32.27030584
-16.70865162 -31.31482276 -31.27030584
-16.70865162 -31.31482276 -30.27030584
-16.70865162 -31.31482276 -29.27030584
-16.70865162 -31.31482276 -28.27030584
-16.70865162 -31.31482276 -27.27030584
-16.70865162 -31.31482276 -26.27030584
-16.70865162 -31.31482276 -25.27030584
-16.70865162 -31.31482276 -24.27030584
-16.70865162 -31.31482276 -23.27030584
-16.70865162 -31.31482276 -22.27030584
-16.70865162 -31.31482276 -21.27030584
-16.70865162 -31.31482276 -20.27030584
-15.70865162 -32.31482276 -20.27030584
-16.70865162 -31.31482276 -19.27030584
-15.70865162 -32.31482276 -19.27030584
-16.70865162 -31.31482276 -18.27030584
-15.70865162 -32.31482276 -18.27030584
-15.70865162 -31.31482276 -17.27030584
-16.70865162 -31.31482276 8.729694161
-15.70865162 -32.31482276 8.729694161
-15.70865162 -31.31482276 7.729694161
-16.70865162 -31.31482276 9.729694161
-16.70865162 -31.31482276 10.72969416
-16.70865162 -31.31482276 11.72969416
-16.70865162 -31.31482276 12.72969416
-16.70865162 -31.31482276 13.72969416
-15.70865162 -31.31482276 64.72969416
-16.70865162 -30.31482276 -44.27030584
-15.70865162 -31.31482276 -44.27030584
-15.70865162 -30.31482276 -45.27030584
-16.70865162 -30.31482276 -43.27030584
-15.70865162 -31.31482276 -43.27030584
-16.70865162 -30.31482276 -42.27030584
-15.70865162 -31.31482276 -42.27030584
-16.70865162 -30.31482276 -41.27030584
-15.70865162 -31.31482276 -41.27030584
-16.70865162 -30.31482276 -40.27030584
-15.70865162 -31.31482276 -40.27030584
-16.70865162 -30.31482276 -39.27030584
-15.70865162 -31.31482276 -39.27030584
-16.70865162 -30.31482276 -38.27030584
-15.70865162 -31.31482276 -38.27030584
-16.70865162 -30.31482276 -37.27030584
-15.70865162 -31.31482276 -37.27030584
-16.70865162 -30.31482276 -36.27030584
-16.70865162 -30.31482276 -35.27030584
-16.70865162 -30.31482276 -34.27030584
-16.70865162 -30.31482276 -33.27030584
-16.70865162 -30.31482276 -32.27030584
-16.70865162 -30.31482276 -31.27030584
-16.70865162 -30.31482276 -30.27030584
-16.70865162 -30.31482276 -29.27030584
-16.70865162 -30.31482276 -28.27030584
-16.70865162 -30.31482276 -27.27030584
-16.70865162 -30.31482276 -26.27030584
-16.70865162 -30.31482276 -25.27030584
-16.70865162 -30.31482276 -24.27030584
-16.70865162 -30.31482276 -23.27030584
-16.70865162 -30.31482276 -22.27030584
-16.70865162 -30.31482276 -21.27030584
-16.70865162 -30.31482276 -20.27030584
-16.70865162 -30.31482276 -19.27030584
-16.70865162 -30.31482276 -18.27030584
-16.70865162 -30.31482276 -17.27030584
-15.70865162 -31.31482276 -17.27030584
-16.70865162 -30.31482276 -16.27030584
-15.70865162 -31.31482276 -16.27030584
-15.70865162 -30.31482276 -15.27030584
-16.70865162 -30.31482276 7.729694161
-15.70865162 -31.31482276 7.729694161
-15.70865162 -30.31482276 6.729694161
-16.70865162 -30.31482276 8.729694161
-16.70865162 -30.31482276 9.729694161
-16.70865162 -30.31482276 10.72969416
-16.70865162 -30.31482276 11.72969416
-16.70865162 -30.31482276 12.72969416
-16.70865162 -30.31482276 64.72969416
-15.70865162 -31.31482276 64.72969416
-15.70865162 -30.31482276 65.72969416
-16.70865162 -29.31482276 -46.27030584
-15.70865162 -30.31482276 -46.27030584
-15.70865162 -29.31482276 -47.27030584
-16.70865162 -29.31482276 -45.27030584
-15.70865162 -30.31482276 -45.27030584
-16.70865162 -29.31482276 -44.27030584
-16.70865162 -29.31482276 -43.27030584
-16.70865162 -29.31482276 -42.27030584
-16.70865162 -29.31482276 -41.27030584
-16.70865162 -29.31482276 -40.27030584
-16.70865162 -29.31482276 -39.27030584
-16.70865162 -29.31482276 -38.27030584
-16.70865162 -29.31482276 -37.27030584
-16.70865162 -29.31482276 -36.27030584
-16.70865162 -29.31482276 -35.27030584
-16.70865162 -29.31482276 -34.27030584
-16.70865162 -29.31482276 -33.27030584
-16.70865162 -29.31482276 -32.27030584
-16.70865162 -29.31482276 -31.27030584
-16.70865162 -29.31482276 -30.27030584
-16.70865162 -29.31482276 -29.27030584
-16.70865162 -29.31482276 -28.27030584
-16.70865162 -29.31482276 -27.27030584
-16.70865162 -29.31482276 -26.27030584
-16.70865162 -29.31482276 -25.27030584
-16.70865162 -29.31482276 -24.27030584
-16.70865162 -29.31482276 -23.27030584
-16.70865162 -29.31482276 -22.27030584
-16.70865162 -29.31482276 -21.27030584
-16.70865162 -29.31482276 -20.27030584
-16.70865162 -29.31482276 -19.27030584
-16.70865162 -29.31482276 -18.27030584
-16.70865162 -29.31482276 -17.27030584
-16.70865162 -29.31482276 -16.27030584
-16.70865162 -29.31482276 -15.27030584
-15.70865162 -30.31482276 -15.27030584
-16.70865162 -29.31482276 -14.27030584
-15.70865162 -30.31482276 -14.27030584
-15.70865162 -29.31482276 -13.27030584
-16.70865162 -29.31482276 4.729694161
-15.70865162 -30.31482276 4.729694161
-15.70865162 -29.31482276 3.729694161
-16.70865162 -29.31482276 5.729694161
-15.70865162 -30.31482276 5.729694161
-16.70865162 -29.31482276 6.729694161
-15.70865162 -30.31482276 6.729694161
-16.70865162 -29.31482276 7.729694161
-16.70865162 -29.31482276 8.729694161
-16.70865162 -29.31482276 9.729694161
-16.70865162 -29.31482276 10.72969416
-16.70865162 -29.31482276 11.72969416
-15.70865162 -29.31482276 65.72969416
-16.70865162 -28.31482276 -48.27030584
-15.70865162 -29.31482276 -48.27030584
-15.70865162 -28.31482276 -49.27030584
-16.70865162 -28.31482276 -47.27030584
-15.70865162 -29.31482276 -47.27030584
-16.70865162 -28.31482276 -46.27030584
-16.70865162 -28.31482276 -45.27030584
-16.70865162 -28.31482276 -44.27030584
-16.70865162 -28.31482276 -43.27030584
-16.70865162 -28.31482276 -42.27030584
-16.70865162 -28.31482276 -41.27030584
-16.70865162 -28.31482276 -40.27030584
-16.70865162 -28.31482276 -39.27030584
-16.70865162 -28.31482276 -38.27030584
-16.70865162 -28.31482276 -37.27030584
-16.70865162 -28.31482276 -36.27030584
-16.70865162 -28.31482276 -35.27030584
-16.70865162 -28.31482276 -34.27030584
-16.70865162 -28.31482276 -33.27030584
-16.70865162 -28.31482276 -32.27030584
-16.70865162 -28.31482276 -31.27030584
-16.70865162 -28.31482276 -30.27030584
-16.70865162 -28.31482276 -29.27030584
-16.70865162 -28.31482276 -28.27030584
-16.70865162 -28.31482276 -27.27030584
-16.70865162 -28.31482276 -26.27030584
-16.70865162 -28.31482276 -25.27030584
-16.70865162 -28.31482276 -24.27030584
-16.70865162 -28.31482276 -23.27030584
-16.70865162 -28.31482276 -22.27030584
-16.70865162 -28.31482276 -21.27030584
-16.70865162 -28.31482276 -20.27030584
-16.70865162 -28.31482276 -19.27030584
-16.70865162 -28.31482276 -18.27030584
-16.70865162 -28.31482276 -17.27030584
-16.70865162 -28.31482276 -16.27030584
-16.70865162 -28.31482276 -15.27030584
-16.70865162 -28.31482276 -14.27030584
-16.70865162 -28.31482276 -13.27030584
-15.70865162 -29.31482276 -13.27030584
-16.70865162 -28.31482276 -12.27030584
-15.70865162 -29.31482276 -12.27030584
-16.70865162 -28.31482276 -11.27030584
-15.70865162 -29.31482276 -11.27030584
-15.70865162 -28.31482276 -10.27030584
-16.70865162 -28.31482276 -6.270305839
-15.70865162 -29.31482276 -6.270305839
-15.70865162 -28.31482276 -7.270305839
-16.70865162 -28.31482276 -5.270305839
-15.70865162 -29.31482276 -5.270305839
-16.70865162 -28.31482276 -4.270305839
-15.70865162 -29.31482276 -4.270305839
-16.70865162 -28.31482276 -3.270305839
-15.70865162 -29.31482276 -3.270305839
-16.70865162 -28.31482276 -2.270305839
-15.70865162 -29.31482276 -2.270305839
-16.70865162 -28.31482276 -1.270305839
-15.70865162 -29.31482276 -1.270305839
-16.70865162 -28.31482276 -0.2703058393
-15.70865162 -29.31482276 -0.2703058393
-16.70865162 -28.31482276 0.7296941607
-15.70865162 -29.31482276 0.7296941607
-16.70865162 -28.31482276 1.729694161
-15.70865162 -29.31482276 1.729694161
-16.70865162 -28.31482276 2.729694161
-15.70865162 -29.31482276 2.729694161
-16.70865162 -28.31482276 3.729694161
-15.70865162 -29.31482276 3.729694161
-16.70865162 -28.31482276 4.729694161
-16.70865162 -28.31482276 5.729694161
-16.70865162 -28.31482276 6.729694161
-16.70865162 -28.31482276 7.729694161
-16.70865162 -28.31482276 8.729694161
-16.70865162 -28.31482276 9.729694161
-16.70865162 -28.31482276 10.72969416
-15.70865162 -28.31482276 65.72969416
-16.70865162 -27.31482276 -49.27030584
-15.70865162 -28.31482276 -49.27030584
-15.70865162 -27.31482276 -50.27030584
-16.70865162 -27.31482276 -48.27030584
-16.70865162 -27.31482276 -47.27030584
-16.70865162 -27.31482276 -46.27030584
-16.70865162 -27.31482276 -45.27030584
-16.70865162 -27.31482276 -44.27030584
-16.70865162 -27.31482276 -43.27030584
-16.70865162 -27.31482276 -42.27030584
-16.70865162 -27.31482276 -41.27030584
-16.70865162 -27.31482276 -40.27030584
-16.70865162 -27.31482276 -39.27030584
-16.70865162 -27.31482276 -38.27030584
-16.70865162 -27.31482276 -37.27030584
-16.70865162 -27.31482276 -36.27030584
-16.70865162 -27.31482276 -35.27030584
-16.70865162 -27.31482276 -34.27030584
-16.70865162 -27.31482276 -33.27030584
-16.70865162 -27.31482276 -32.27030584
-16.70865162 -27.31482276 -31.27030584
-16.70865162 -27.31482276 -22.27030584
-16.70865162 -27.31482276 -21.27030584
-16.70865162 -27.31482276 -20.27030584
-16.70865162 -27.31482276 -19.27030584
-16.70865162 -27.31482276 -18.27030584
-16.70865162 -27.31482276 -17.27030584
-16.70865162 -27.31482276 -16.27030584
-16.70865162 -27.31482276 -15.27030584
-16.70865162 -27.31482276 -14.27030584
-16.70865162 -27.31482276 -13.27030584
-16.70865162 -27.31482276 -12.27030584
-16.70865162 -27.31482276 -11.27030584
-16.70865162 -27.31482276 -10.27030584
-15.70865162 -28.31482276 -10.27030584
-16.70865162 -27.31482276 -9.270305839
-15.70865162 -28.31482276 -9.270305839
-16.70865162 -27.31482276 -8.270305839
-15.70865162 -28.31482276 -8.270305839
-16.70865162 -27.31482276 -7.270305839
-15.70865162 -28.31482276 -7.270305839
-16.70865162 -27.31482276 -6.270305839
-16.70865162 -27.31482276 -5.270305839
-16.70865162 -27.31482276 -4.270305839
-16.70865162 -27.31482276 -3.270305839
-16.70865162 -27.31482276 -2.270305839
-16.70865162 -27.31482276 -1.270305839
-16.70865162 -27.31482276 -0.2703058393
-16.70865162 -27.31482276 0.7296941607
-16.70865162 -27.31482276 1.729694161
-16.70865162 -27.31482276 2.729694161
-16.70865162 -27.31482276 3.729694161
-16.70865162 -27.31482276 4.729694161
-16.70865162 -27.31482276 5.729694161
-16.70865162 -27.31482276 6.729694161
-16.70865162 -27.31482276 7.729694161
-16.70865162 -27.31482276 8.729694161
-16.70865162 -27.31482276 9.729694161
-15.70865162 -27.31482276 65.72969416
-16.70865162 -26.31482276 -50.27030584
-15.70865162 -27.31482276 -50.27030584
-15.70865162 -26.31482276 -51.27030584
-16.70865162 -26.31482276 -49.27030584
-16.70865162 -26.31482276 -48.27030584
-16.70865162 -26.31482276 -47.27030584
-16.70865162 -26.31482276 -46.27030584
-16.70865162 -26.31482276 -45.27030584
-16.70865162 -26.31482276 -44.27030584
-16.70865162 -26.31482276 -43.27030584
-16.70865162 -26.31482276 -42.27030584
-16.70865162 -26.31482276 -41.27030584
-16.70865162 -26.31482276 -40.27030584
-16.70865162 -26.31482276 -39.27030584
-16.70865162 -26.31482276 -38.27030584
-16.70865162 -26.31482276 -37.27030584
-16.70865162 -26.31482276 -36.27030584
-16.70865162 -26.31482276 -35.27030584
-16.70865162 -26.31482276 -34.27030584
-16.70865162 -26.31482276 -20.27030584
-16.70865162 -26.31482276 -19.27030584
-16.70865162 -26.31482276 -18.27030584
-16.70865162 -26.31482276 -17.27030584
-16.70865162 -26.31482276 -16.27030584
-16.70865162 -26.31482276 -15.27030584
-16.70865162 -26.31482276 -14.27030584
-16.70865162 -26.31482276 -13.27030584
-16.70865162 -26.31482276 -12.27030584
-16.70865162 -26.31482276 -11.27030584
-16.70865162 -26.31482276 -10.27030584
-16.70865162 -26.31482276 -9.270305839
-16.70865162 -26.31482276 -8.270305839
-16.70865162 -26.31482276 -7.270305839
-16.70865162 -26.31482276 -6.270305839
-16.70865162 -26.31482276 -5.270305839
-16.70865162 -26.31482276 -4.270305839
-16.70865162 -26.31482276 -3.270305839
-16.70865162 -26.31482276 -2.270305839
-16.70865162 -26.31482276 -1.270305839
-16.70865162 -26.31482276 -0.2703058393
-16.70865162 -26.31482276 0.7296941607
-16.70865162 -26.31482276 1.729694161
-16.70865162 -26.31482276 2.729694161
-16.70865162 -26.31482276 3.729694161
-16.70865162 -26.31482276 4.729694161
-16.70865162 -26.31482276 5.729694161
-16.70865162 -26.31482276 6.729694161
-16.70865162 -26.31482276 7.729694161
-16.70865162 -26.31482276 8.729694161
-15.70865162 -26.31482276 65.72969416
-16.70865162 -25.31482276 -51.27030584
-15.70865162 -26.31482276 -51.27030584
-15.70865162 -25.31482276 -52.27030584
-16.70865162 -25.31482276 -50.27030584
-16.70865162 -25.31482276 -49.27030584
-16.70865162 -25.31482276 -48.27030584
-16.70865162 -25.31482276 -47.27030584
-16.70865162 -25.31482276 -46.27030584
-16.70865162 -25.31482276 -45.27030584
-16.70865162 -25.31482276 -44.27030584
-16.70865162 -25.31482276 -43.27030584
-16.70865162 -25.31482276 -42.27030584
-16.70865162 -25.31482276 -41.27030584
-16.70865162 -25.31482276 -40.27030584
-16.70865162 -25.31482276 -39.27030584
-16.70865162 -25.31482276 -38.27030584
-16.70865162 -25.31482276 -37.27030584
-16.70865162 -25.31482276 -19.27030584
-16.70865162 -25.31482276 -18.27030584
-16.70865162 -25.31482276 -17.27030584
-16.70865162 -25.31482276 -16.27030584
-16.70865162 -25.31482276 -15.27030584
-16.70865162 -25.31482276 -14.27030584
-16.70865162 -25.31482276 -13.27030584
-16.70865162 -25.31482276 -12.27030584
-16.70865162 -25.31482276 -11.27030584
-16.70865162 -25.31482276 -10.27030584
-16.70865162 -25.31482276 -9.270305839
-16.70865162 -25.31482276 -8.270305839
-16.70865162 -25.31482276 -7.270305839
-16.70865162 -25.31482276 -6.270305839
-16.70865162 -25.31482276 -5.270305839
-16.70865162 -25.31482276 -4.270305839
-16.70865162 -25.31482276 -3.270305839
-16.70865162 -25.31482276 -2.270305839
-16.70865162 -25.31482276 -1.270305839
-16.70865162 -25.31482276 -0.2703058393
-16.70865162 -25.31482276 0.7296941607
-16.70865162 -25.31482276 1.729694161
-16.70865162 -25.31482276 2.729694161
-16.70865162 -25.31482276 3.729694161
-16.70865162 -25.31482276 4.729694161
-16.70865162 -25.31482276 5.729694161
-16.70865162 -25.31482276 6.729694161
-15.70865162 -25.31482276 65.72969416
-16.70865162 -24.31482276 -52.27030584
-15.70865162 -25.31482276 -52.27030584
-15.70865162 -24.31482276 -53.27030584
-16.70865162 -24.31482276 -51.27030584
-16.70865162 -24.31482276 -50.27030584
-16.70865162 -24.31482276 -49.27030584
-16.70865162 -24.31482276 -48.27030584
-16.70865162 -24.31482276 -47.27030584
-16.70865162 -24.31482276 -46.27030584
-16.70865162 -24.31482276 -45.27030584
-16.70865162 -24.31482276 -44.27030584
-16.70865162 -24.31482276 -43.27030584
-16.70865162 -24.31482276 -42.27030584
-16.70865162 -24.31482276 -41.27030584
-16.70865162 -24.31482276 -17.27030584
-16.70865162 -24.31482276 -16.27030584
-16.70865162 -24.31482276 -15.27030584
-16.70865162 -24.31482276 -14.27030584
-16.70865162 -24.31482276 -13.27030584
-16.70865162 -24.31482276 -12.27030584
-16.70865162 -24.31482276 -11.27030584
-16.70865162 -24.31482276 -10.27030584
-16.70865162 -24.31482276 -9.270305839
-16.70865162 -24.31482276 -8.270305839
-16.70865162 -24.31482276 -7.270305839
-16.70865162 -24.31482276 -6.270305839
-16.70865162 -24.31482276 -5.270305839
-16.70865162 -24.31482276 -4.270305839
-16.70865162 -24.31482276 -3.270305839
-16.70865162 -24.31482276 -2.270305839
-16.70865162 -24.31482276 -1.270305839
-16.70865162 -24.31482276 -0.2703058393
-16.70865162 -24.31482276 0.7296941607
-16.70865162 -24.31482276 1.729694161
-16.70865162 -24.31482276 2.729694161
-16.70865162 -24.31482276 3.729694161
-16.70865162 -24.31482276 4.729694161
-16.70865162 -24.31482276 5.729694161
-16.70865162 -24.31482276 6.729694161
-15.70865162 -24.31482276 65.72969416
-16.70865162 -23.31482276 -53.27030584
-15.70865162 -24.31482276 -53.27030584
-15.70865162 -23.31482276 -54.27030584
-16.70865162 -23.31482276 -52.27030584
-16.70865162 -23.31482276 -51.27030584
-16.70865162 -23.31482276 -50.27030584
-16.70865162 -23.31482276 -49.27030584
-16.70865162 -23.31482276 -48.27030584
-16.70865162 -23.31482276 -47.27030584
-16.70865162 -23.31482276 -46.27030584
-16.70865162 -23.31482276 -45.27030584
-16.70865162 -23.31482276 -44.27030584
-16.70865162 -23.31482276 -43.27030584
-16.70865162 -23.31482276 -15.27030584
-16.70865162 -23.31482276 -14.27030584
-16.70865162 -23.31482276 -13.27030584
-16.70865162 -23.31482276 -12.27030584
-16.70865162 -23.31482276 -11.27030584
-16.70865162 -23.31482276 -10.27030584
-16.70865162 -23.31482276 -9.270305839
-16.70865162 -23.31482276 -8.270305839
-16.70865162 -23.31482276 -7.270305839
-16.70865162 -23.31482276 -6.270305839
-16.70865162 -23.31482276 -5.270305839
-16.70865162 -23.31482276 -4.270305839
-16.70865162 -23.31482276 -3.270305839
-16.70865162 -23.31482276 -2.270305839
-16.70865162 -23.31482276 -1.270305839
-16.70865162 -23.31482276 -0.2703058393
-16.70865162 -23.31482276 0.7296941607
-16.70865162 -23.31482276 1.729694161
-16.70865162 -23.31482276 2.729694161
