# .PCD v0.7 - Point Cloud Data file format
VERSION 0.7
FIELDS x y z
SIZE 4 4 4
TYPE F F F
COUNT 1 1 1
WIDTH 1252
HEIGHT 1
VIEWPOINT 0 0 0 1 0 0 0
POINTS 1252
DATA ascii
-30.77814306 22.63049472 0.6940187709
-31.77814306 22.63049472 2.694018771
-31.77814306 22.63049472 3.694018771
-31.77814306 22.63049472 4.694018771
-31.77814306 22.63049472 5.694018771
-30.77814306 22.63049472 6.694018771
-30.77814306 22.63049472 6.694018771
-30.77814306 23.63049472 1.694018771
-30.77814306 23.63049472 2.694018771
-30.77814306 23.63049472 3.694018771
-30.77814306 23.63049472 4.694018771
-30.77814306 23.63049472 5.694018771
-30.77814306 -32.36950528 15.69401877
-29.77814306 -33.36950528 15.69401877
-29.77814306 -32.36950528 14.69401877
-30.77814306 -32.36950528 16.69401877
-29.77814306 -33.36950528 16.69401877
-30.77814306 -32.36950528 17.69401877
-29.77814306 -33.36950528 17.69401877
-30.77814306 -32.36950528 18.69401877
-29.77814306 -33.36950528 18.69401877
-30.77814306 -32.36950528 19.69401877
-29.77814306 -33.36950528 19.69401877
-30.77814306 -32.36950528 20.69401877
-29.77814306 -33.36950528 20.69401877
-30.77814306 -32.36950528 21.69401877
-29.77814306 -33.36950528 21.69401877
-29.77814306 -32.36950528 22.69401877
-30.77814306 -31.36950528 13.69401877
-29.77814306 -32.36950528 13.69401877
-29.77814306 -31.36950528 12.69401877
-30.77814306 -31.36950528 14.69401877
-29.77814306 -32.36950528 14.69401877
-30.77814306 -31.36950528 15.69401877
-30.77814306 -31.36950528 22.69401877
-29.77814306 -32.36950528 22.69401877
-30.77814306 -31.36950528 23.69401877
-29.77814306 -32.36950528 23.69401877
-29.77814306 -31.36950528 24.69401877
-30.77814306 -30.36950528 12.69401877
-29.77814306 -31.36950528 12.69401877
-29.77814306 -30.36950528 11.69401877
-30.77814306 -30.36950528 13.69401877
-30.77814306 -30.36950528 24.69401877
-29.77814306 -31.36950528 24.69401877
-30.77814306 -30.36950528 25.69401877
-29.77814306 -31.36950528 25.69401877
-29.77814306 -30.36950528 26.69401877
-30.77814306 -29.36950528 11.69401877
-29.77814306 -30.36950528 11.69401877
-29.77814306 -29.36950528 10.69401877
-30.77814306 -29.36950528 12.69401877
-30.77814306 -29.36950528 26.69401877
-29.77814306 -30.36950528 26.69401877
-29.77814306 -29.36950528 27.69401877
-30.77814306 -28.36950528 11.69401877
-29.77814306 -28.36950528 10.69401877
-30.77814306 -28.36950528 12.69401877
-30.77814306 -28.36950528 27.69401877
-29.77814306 -29.36950528 27.69401877
-29.77814306 -28.36950528 28.69401877
-30.77814306 -27.36950528 10.69401877
-29.77814306 -28.36950528 10.69401877
-29.77814306 -27.36950528 9.694018771
-30.77814306 -27.36950528 11.69401877
-30.77814306 -27.36950528 12.69401877
-30.77814306 -27.36950528 27.69401877
-29.77814306 -27.36950528 28.69401877
-30.77814306 -26.36950528 10.69401877
-29.77814306 -26.36950528 9.694018771
-30.77814306 -26.36950528 11.69401877
-30.77814306 -26.36950528 12.69401877
-30.77814306 -26.36950528 26.69401877
-30.77814306 -26.36950528 27.69401877
-29.77814306 -26.36950528 28.69401877
-30.77814306 -25.36950528 10.69401877
-29.77814306 -25.36950528 9.694018771
-30.77814306 -25.36950528 11.69401877
-30.77814306 -25.36950528 12.69401877
-30.77814306 -25.36950528 13.69401877
-30.77814306 -25.36950528 24.69401877
-30.77814306 -25.36950528 25.69401877
-29.77814306 -25.36950528 26.69401877
-29.77814306 -25.36950528 26.69401877
-29.77814306 -25.36950528 27.69401877
-29.77814306 -24.36950528 10.69401877
-30.77814306 -24.36950528 11.69401877
-29.77814306 -24.36950528 10.69401877
-30.77814306 -24.36950528 12.69401877
-30.77814306 -24.36950528 13.69401877
-30.77814306 -24.36950528 14.69401877
-30.77814306 -24.36950528 15.69401877
-30.77814306 -24.36950528 16.69401877
-30.77814306 -24.36950528 17.69401877
-30.77814306 -24.36950528 18.69401877
-30.77814306 -24.36950528 19.69401877
-30.77814306 -24.36950528 20.69401877
-30.77814306 -24.36950528 21.69401877
-30.77814306 -24.36950528 22.69401877
-30.77814306 -24.36950528 23.69401877
-29.77814306 -24.36950528 24.69401877
-29.77814306 -24.36950528 24.69401877
-29.77814306 -24.36950528 25.69401877
-29.77814306 -23.36950528 11.69401877
-30.77814306 -23.36950528 12.69401877
-29.77814306 -23.36950528 11.69401877
-30.77814306 -23.36950528 13.69401877
-30.77814306 -23.36950528 14.69401877
-30.77814306 -23.36950528 15.69401877
-30.77814306 -23.36950528 16.69401877
-30.77814306 -23.36950528 17.69401877
-30.77814306 -23.36950528 18.69401877
-30.77814306 -23.36950528 19.69401877
-30.77814306 -23.36950528 20.69401877
-30.77814306 -23.36950528 21.69401877
-29.77814306 -23.36950528 22.69401877
-29.77814306 -23.36950528 22.69401877
-29.77814306 -23.36950528 23.69401877
-29.77814306 -22.36950528 12.69401877
-30.77814306 -22.36950528 13.69401877
-29.77814306 -22.36950528 12.69401877
-30.77814306 -22.36950528 14.69401877
-30.77814306 -22.36950528 15.69401877
-30.77814306 -22.36950528 16.69401877
-30.77814306 -22.36950528 17.69401877
-29.77814306 -22.36950528 18.69401877
-29.77814306 -22.36950528 18.69401877
-29.77814306 -22.36950528 19.69401877
-29.77814306 -22.36950528 20.69401877
-29.77814306 -22.36950528 21.69401877
-29.77814306 -21.36950528 13.69401877
-29.77814306 -21.36950528 14.69401877
-29.77814306 -21.36950528 15.69401877
-29.77814306 -21.36950528 16.69401877
-29.77814306 -21.36950528 17.69401877
-30.77814306 -15.36950528 -28.30598123
-29.77814306 -16.36950528 -28.30598123
-29.77814306 -15.36950528 -29.30598123
-30.77814306 -15.36950528 -27.30598123
-29.77814306 -16.36950528 -27.30598123
-30.77814306 -15.36950528 -26.30598123
-29.77814306 -16.36950528 -26.30598123
-30.77814306 -15.36950528 -25.30598123
-29.77814306 -16.36950528 -25.30598123
-30.77814306 -15.36950528 -24.30598123
-29.77814306 -16.36950528 -24.30598123
-30.77814306 -15.36950528 -23.30598123
-29.77814306 -16.36950528 -23.30598123
-30.77814306 -15.36950528 -22.30598123
-29.77814306 -16.36950528 -22.30598123
-30.77814306 -15.36950528 -21.30598123
-29.77814306 -16.36950528 -21.30598123
-30.77814306 -15.36950528 -20.30598123
-29.77814306 -16.36950528 -20.30598123
-30.77814306 -15.36950528 -19.30598123
-29.77814306 -16.36950528 -19.30598123
-30.77814306 -15.36950528 -18.30598123
-29.77814306 -16.36950528 -18.30598123
-30.77814306 -15.36950528 -17.30598123
-29.77814306 -16.36950528 -17.30598123
-30.77814306 -15.36950528 -16.30598123
-29.77814306 -16.36950528 -16.30598123
-29.77814306 -15.36950528 -15.30598123
-30.77814306 -15.36950528 7.694018771
-29.77814306 -16.36950528 7.694018771
-29.77814306 -15.36950528 6.694018771
-30.77814306 -15.36950528 8.694018771
-29.77814306 -16.36950528 8.694018771
-30.77814306 -15.36950528 9.694018771
-29.77814306 -16.36950528 9.694018771
-30.77814306 -15.36950528 10.69401877
-29.77814306 -16.36950528 10.69401877
-30.77814306 -15.36950528 11.69401877
-29.77814306 -16.36950528 11.69401877
-30.77814306 -15.36950528 12.69401877
-29.77814306 -16.36950528 12.69401877
-30.77814306 -15.36950528 13.69401877
-29.77814306 -16.36950528 13.69401877
-29.77814306 -15.36950528 14.69401877
-30.77814306 -14.36950528 -33.30598123
-29.77814306 -15.36950528 -33.30598123
-29.77814306 -14.36950528 -34.30598123
-30.77814306 -14.36950528 -32.30598123
-29.77814306 -15.36950528 -32.30598123
-29.77814306 -15.36950528 -31.30598123
-29.77814306 -15.36950528 -30.30598123
-29.77814306 -15.36950528 -29.30598123
-30.77814306 -14.36950528 -15.30598123
-29.77814306 -15.36950528 -15.30598123
-30.77814306 -14.36950528 -14.30598123
-29.77814306 -15.36950528 -14.30598123
-30.77814306 -14.36950528 -13.30598123
-29.77814306 -15.36950528 -13.30598123
-30.77814306 -14.36950528 -12.30598123
-29.77814306 -15.36950528 -12.30598123
-29.77814306 -14.36950528 -11.30598123
-30.77814306 -14.36950528 5.694018771
-29.77814306 -15.36950528 5.694018771
-29.77814306 -14.36950528 4.694018771
-30.77814306 -14.36950528 6.694018771
-29.77814306 -15.36950528 6.694018771
-30.77814306 -14.36950528 7.694018771
-30.77814306 -14.36950528 8.694018771
-30.77814306 -14.36950528 9.694018771
-30.77814306 -14.36950528 10.69401877
-30.77814306 -14.36950528 11.69401877
-30.77814306 -14.36950528 12.69401877
-30.77814306 -14.36950528 13.69401877
-30.77814306 -14.36950528 14.69401877
-29.77814306 -15.36950528 14.69401877
-29.77814306 -14.36950528 15.69401877
-29.77814306 -13.36950528 -33.30598123
-29.77814306 -13.36950528 -32.30598123
-29.77814306 -13.36950528 -31.30598123
-29.77814306 -13.36950528 -30.30598123
-29.77814306 -13.36950528 -29.30598123
-29.77814306 -13.36950528 -28.30598123
-29.77814306 -13.36950528 -27.30598123
-29.77814306 -13.36950528 -26.30598123
-29.77814306 -13.36950528 -25.30598123
-29.77814306 -13.36950528 -24.30598123
-29.77814306 -13.36950528 -23.30598123
-29.77814306 -13.36950528 -22.30598123
-30.77814306 -13.36950528 -21.30598123
-29.77814306 -13.36950528 -22.30598123
-30.77814306 -13.36950528 -20.30598123
-30.77814306 -13.36950528 -19.30598123
-30.77814306 -13.36950528 -18.30598123
-30.77814306 -13.36950528 -13.30598123
-30.77814306 -13.36950528 -12.30598123
-30.77814306 -13.36950528 -11.30598123
-29.77814306 -14.36950528 -11.30598123
-29.77814306 -13.36950528 -10.30598123
-30.77814306 -13.36950528 2.694018771
-29.77814306 -14.36950528 2.694018771
-29.77814306 -13.36950528 1.694018771
-30.77814306 -13.36950528 3.694018771
-29.77814306 -14.36950528 3.694018771
-30.77814306 -13.36950528 4.694018771
-29.77814306 -14.36950528 4.694018771
-30.77814306 -13.36950528 5.694018771
-30.77814306 -13.36950528 6.694018771
-30.77814306 -13.36950528 7.694018771
-30.77814306 -13.36950528 8.694018771
-30.77814306 -13.36950528 9.694018771
-30.77814306 -13.36950528 10.69401877
-30.77814306 -13.36950528 11.69401877
-30.77814306 -13.36950528 12.69401877
-30.77814306 -13.36950528 13.69401877
-30.77814306 -13.36950528 14.69401877
-29.77814306 -13.36950528 15.69401877
-30.77814306 -12.36950528 -23.30598123
-29.77814306 -13.36950528 -23.30598123
-29.77814306 -12.36950528 -24.30598123
-29.77814306 -13.36950528 -22.30598123
-30.77814306 -12.36950528 -12.30598123
-30.77814306 -12.36950528 -11.30598123
-30.77814306 -12.36950528 -10.30598123
-29.77814306 -13.36950528 -10.30598123
-29.77814306 -12.36950528 -9.305981229
-30.77814306 -12.36950528 0.6940187709
-29.77814306 -13.36950528 0.6940187709
-29.77814306 -12.36950528 -0.3059812291
-30.77814306 -12.36950528 1.694018771
-29.77814306 -13.36950528 1.694018771
-30.77814306 -12.36950528 2.694018771
-30.77814306 -12.36950528 3.694018771
-30.77814306 -12.36950528 4.694018771
-30.77814306 -12.36950528 5.694018771
-30.77814306 -12.36950528 10.69401877
-30.77814306 -12.36950528 11.69401877
-30.77814306 -12.36950528 12.69401877
-30.77814306 -12.36950528 13.69401877
-30.77814306 -12.36950528 14.69401877
-30.77814306 -12.36950528 15.69401877
-29.77814306 -13.36950528 15.69401877
-29.77814306 -12.36950528 16.69401877
-29.77814306 -11.36950528 -23.30598123
-29.77814306 -11.36950528 -22.30598123
-29.77814306 -11.36950528 -21.30598123
-29.77814306 -11.36950528 -20.30598123
-29.77814306 -11.36950528 -19.30598123
-30.77814306 -11.36950528 -18.30598123
-29.77814306 -11.36950528 -19.30598123
-30.77814306 -11.36950528 -11.30598123
-30.77814306 -11.36950528 -10.30598123
-29.77814306 -11.36950528 -9.305981229
-30.77814306 -11.36950528 -2.305981229
-29.77814306 -12.36950528 -2.305981229
-29.77814306 -11.36950528 -3.305981229
-30.77814306 -11.36950528 -1.305981229
-29.77814306 -12.36950528 -1.305981229
-30.77814306 -11.36950528 -0.3059812291
-29.77814306 -12.36950528 -0.3059812291
-30.77814306 -11.36950528 0.6940187709
-30.77814306 -11.36950528 1.694018771
-30.77814306 -11.36950528 2.694018771
-30.77814306 -11.36950528 3.694018771
-30.77814306 -11.36950528 4.694018771
-30.77814306 -11.36950528 11.69401877
-30.77814306 -11.36950528 12.69401877
-30.77814306 -11.36950528 13.69401877
-30.77814306 -11.36950528 14.69401877
-30.77814306 -11.36950528 15.69401877
-30.77814306 -11.36950528 16.69401877
-29.77814306 -12.36950528 16.69401877
-29.77814306 -11.36950528 17.69401877
-30.77814306 -11.36950528 20.69401877
-29.77814306 -12.36950528 20.69401877
-29.77814306 -11.36950528 19.69401877
-30.77814306 -11.36950528 21.69401877
-29.77814306 -12.36950528 21.69401877
-29.77814306 -12.36950528 22.69401877
-29.77814306 -12.36950528 23.69401877
-29.77814306 -12.36950528 24.69401877
-29.77814306 -12.36950528 25.69401877
-29.77814306 -12.36950528 26.69401877
-29.77814306 -12.36950528 27.69401877
-29.77814306 -12.36950528 28.69401877
-29.77814306 -12.36950528 29.69401877
-30.77814306 -11.36950528 30.69401877
-29.77814306 -12.36950528 30.69401877
-30.77814306 -11.36950528 31.69401877
-29.77814306 -12.36950528 31.69401877
-29.77814306 -11.36950528 32.69401877
-30.77814306 -10.36950528 -24.30598123
-29.77814306 -11.36950528 -24.30598123
-29.77814306 -10.36950528 -25.30598123
-29.77814306 -11.36950528 -23.30598123
-29.77814306 -11.36950528 -22.30598123
-29.77814306 -11.36950528 -21.30598123
-29.77814306 -11.36950528 -20.30598123
-29.77814306 -11.36950528 -19.30598123
-30.77814306 -10.36950528 -11.30598123
-30.77814306 -10.36950528 -10.30598123
-29.77814306 -10.36950528 -9.305981229
-30.77814306 -10.36950528 -3.305981229
-29.77814306 -11.36950528 -3.305981229
-29.77814306 -10.36950528 -4.305981229
-30.77814306 -10.36950528 -2.305981229
-30.77814306 -10.36950528 -1.305981229
-30.77814306 -10.36950528 -0.3059812291
-30.77814306 -10.36950528 0.6940187709
-30.77814306 -10.36950528 1.694018771
-30.77814306 -10.36950528 2.694018771
-30.77814306 -10.36950528 3.694018771
-30.77814306 -10.36950528 11.69401877
-30.77814306 -10.36950528 12.69401877
-30.77814306 -10.36950528 13.69401877
-30.77814306 -10.36950528 14.69401877
-30.77814306 -10.36950528 15.69401877
-30.77814306 -10.36950528 16.69401877
-30.77814306 -10.36950528 17.69401877
-29.77814306 -11.36950528 17.69401877
-30.77814306 -10.36950528 18.69401877
-29.77814306 -11.36950528 18.69401877
-29.77814306 -11.36950528 19.69401877
-29.77814306 -11.36950528 32.69401877
-29.77814306 -11.36950528 33.69401877
-29.77814306 -11.36950528 34.69401877
-29.77814306 -10.36950528 35.69401877
-29.77814306 -9.369505276 -24.30598123
-29.77814306 -9.369505276 -23.30598123
-29.77814306 -9.369505276 -22.30598123
-29.77814306 -9.369505276 -21.30598123
-29.77814306 -9.369505276 -20.30598123
-29.77814306 -9.369505276 -19.30598123
-29.77814306 -9.369505276 -18.30598123
-30.77814306 -9.369505276 -17.30598123
-29.77814306 -9.369505276 -18.30598123
-30.77814306 -9.369505276 -11.30598123
-30.77814306 -9.369505276 -10.30598123
-30.77814306 -9.369505276 -9.305981229
-29.77814306 -10.36950528 -9.305981229
-29.77814306 -9.369505276 -8.305981229
-30.77814306 -9.369505276 -5.305981229
-29.77814306 -10.36950528 -5.305981229
-29.77814306 -9.369505276 -6.305981229
-30.77814306 -9.369505276 -4.305981229
-29.77814306 -10.36950528 -4.305981229
-30.77814306 -9.369505276 -3.305981229
-30.77814306 -9.369505276 -2.305981229
-30.77814306 -9.369505276 -1.305981229
-30.77814306 -9.369505276 -0.3059812291
-30.77814306 -9.369505276 0.6940187709
-30.77814306 -9.369505276 1.694018771
-30.77814306 -9.369505276 2.694018771
-30.77814306 -9.369505276 12.69401877
-30.77814306 -9.369505276 13.69401877
-30.77814306 -9.369505276 14.69401877
-30.77814306 -9.369505276 15.69401877
-30.77814306 -9.369505276 16.69401877
-29.77814306 -10.36950528 35.69401877
-30.77814306 -9.369505276 36.69401877
-29.77814306 -10.36950528 36.69401877
-29.77814306 -9.369505276 37.69401877
-30.77814306 -8.369505276 -31.30598123
-29.77814306 -9.369505276 -31.30598123
-29.77814306 -8.369505276 -32.30598123
-29.77814306 -9.369505276 -30.30598123
-29.77814306 -9.369505276 -29.30598123
-29.77814306 -9.369505276 -28.30598123
-29.77814306 -9.369505276 -27.30598123
-29.77814306 -9.369505276 -26.30598123
-29.77814306 -9.369505276 -25.30598123
-29.77814306 -9.369505276 -24.30598123
-29.77814306 -9.369505276 -23.30598123
-29.77814306 -9.369505276 -22.30598123
-29.77814306 -9.369505276 -21.30598123
-29.77814306 -9.369505276 -20.30598123
-29.77814306 -9.369505276 -19.30598123
-29.77814306 -9.369505276 -18.30598123
-30.77814306 -8.369505276 -11.30598123
-30.77814306 -8.369505276 -10.30598123
-30.77814306 -8.369505276 -9.305981229
-29.77814306 -8.369505276 -8.305981229
-30.77814306 -8.369505276 -7.305981229
-29.77814306 -9.369505276 -7.305981229
-29.77814306 -8.369505276 -8.305981229
-30.77814306 -8.369505276 -6.305981229
-29.77814306 -9.369505276 -6.305981229
-30.77814306 -8.369505276 -5.305981229
-30.77814306 -8.369505276 -4.305981229
-30.77814306 -8.369505276 -3.305981229
-30.77814306 -8.369505276 -2.305981229
-30.77814306 -8.369505276 -1.305981229
-30.77814306 -8.369505276 -0.3059812291
-29.77814306 -8.369505276 37.69401877
-30.77814306 -7.369505276 -33.30598123
-29.77814306 -8.369505276 -33.30598123
-29.77814306 -7.369505276 -34.30598123
-30.77814306 -7.369505276 -32.30598123
-29.77814306 -8.369505276 -32.30598123
-30.77814306 -7.369505276 -31.30598123
-30.77814306 -7.369505276 -12.30598123
-30.77814306 -7.369505276 -11.30598123
-30.77814306 -7.369505276 -10.30598123
-30.77814306 -7.369505276 -9.305981229
-30.77814306 -7.369505276 -8.305981229
-29.77814306 -8.369505276 -8.305981229
-30.77814306 -7.369505276 -7.305981229
-30.77814306 -7.369505276 -6.305981229
-30.77814306 -7.369505276 -5.305981229
-30.77814306 -7.369505276 -4.305981229
-30.77814306 -7.369505276 -3.305981229
-30.77814306 -7.369505276 37.69401877
-29.77814306 -8.369505276 37.69401877
-29.77814306 -7.369505276 38.69401877
-30.77814306 -6.369505276 -35.30598123
-29.77814306 -7.369505276 -35.30598123
-29.77814306 -6.369505276 -36.30598123
-29.77814306 -7.369505276 -34.30598123
-30.77814306 -6.369505276 -12.30598123
-30.77814306 -6.369505276 -11.30598123
-30.77814306 -6.369505276 -10.30598123
-30.77814306 -6.369505276 -9.305981229
-30.77814306 -6.369505276 -8.305981229
-30.77814306 -6.369505276 -7.305981229
-30.77814306 -6.369505276 -6.305981229
-30.77814306 -6.369505276 -5.305981229
-29.77814306 -6.369505276 38.69401877
-29.77814306 -5.369505276 -35.30598123
-29.77814306 -5.369505276 -34.30598123
-29.77814306 -5.369505276 -33.30598123
-29.77814306 -5.369505276 -32.30598123
-29.77814306 -5.369505276 -31.30598123
-29.77814306 -5.369505276 -30.30598123
-29.77814306 -5.369505276 -29.30598123
-30.77814306 -5.369505276 -28.30598123
-29.77814306 -5.369505276 -29.30598123
-30.77814306 -5.369505276 -11.30598123
-30.77814306 -5.369505276 -10.30598123
-30.77814306 -5.369505276 -9.305981229
-30.77814306 -5.369505276 -8.305981229
-30.77814306 -5.369505276 38.69401877
-29.77814306 -6.369505276 38.69401877
-29.77814306 -5.369505276 39.69401877
-30.77814306 -4.369505276 -31.30598123
-29.77814306 -5.369505276 -31.30598123
-29.77814306 -4.369505276 -32.30598123
-29.77814306 -5.369505276 -30.30598123
-29.77814306 -5.369505276 -29.30598123
-29.77814306 -4.369505276 39.69401877
-29.77814306 -3.369505276 -31.30598123
-29.77814306 -3.369505276 -30.30598123
-30.77814306 -3.369505276 -29.30598123
-29.77814306 -3.369505276 -30.30598123
-30.77814306 -3.369505276 39.69401877
-29.77814306 -4.369505276 39.69401877
-29.77814306 -3.369505276 40.69401877
-29.77814306 -2.369505276 -29.30598123
-29.77814306 -2.369505276 -28.30598123
-29.77814306 -2.369505276 -27.30598123
-29.77814306 -2.369505276 -26.30598123
-29.77814306 -2.369505276 -25.30598123
-30.77814306 -2.369505276 -24.30598123
-29.77814306 -2.369505276 -25.30598123
-29.77814306 -2.369505276 40.69401877
-29.77814306 -2.369505276 -35.30598123
-29.77814306 -1.369505276 -36.30598123
-29.77814306 -2.369505276 -34.30598123
-29.77814306 -2.369505276 -33.30598123
-29.77814306 -2.369505276 -32.30598123
-29.77814306 -2.369505276 -31.30598123
-29.77814306 -2.369505276 -30.30598123
-29.77814306 -2.369505276 -29.30598123
-29.77814306 -2.369505276 -28.30598123
-29.77814306 -2.369505276 -27.30598123
-29.77814306 -2.369505276 -26.30598123
-29.77814306 -2.369505276 -25.30598123
-29.77814306 -1.369505276 40.69401877
-29.77814306 -0.369505276 -35.30598123
-29.77814306 -0.369505276 -34.30598123
-29.77814306 -0.369505276 -34.30598123
-29.77814306 -1.369505276 40.69401877
-29.77814306 -0.369505276 41.69401877
-30.77814306 0.630494724 -33.30598123
-29.77814306 0.630494724 -34.30598123
-29.77814306 0.630494724 41.69401877
-30.77814306 1.630494724 -35.30598123
-29.77814306 0.630494724 -35.30598123
-29.77814306 1.630494724 -36.30598123
-29.77814306 0.630494724 -34.30598123
-29.77814306 1.630494724 41.69401877
-29.77814306 1.630494724 -36.30598123
-29.77814306 2.630494724 -37.30598123
-29.77814306 2.630494724 41.69401877
-29.77814306 2.630494724 -37.30598123
-29.77814306 3.630494724 -38.30598123
-29.77814306 3.630494724 41.69401877
-29.77814306 4.630494724 -37.30598123
-29.77814306 4.630494724 -36.30598123
-29.77814306 4.630494724 -35.30598123
-29.77814306 4.630494724 -34.30598123
-29.77814306 4.630494724 -33.30598123
-29.77814306 4.630494724 -32.30598123
-29.77814306 4.630494724 -31.30598123
-29.77814306 4.630494724 -30.30598123
-29.77814306 4.630494724 -29.30598123
-29.77814306 4.630494724 -28.30598123
-29.77814306 4.630494724 -27.30598123
-29.77814306 4.630494724 -26.30598123
-29.77814306 4.630494724 -25.30598123
-29.77814306 4.630494724 -24.30598123
-29.77814306 4.630494724 -23.30598123
-29.77814306 4.630494724 -22.30598123
-30.77814306 4.630494724 -21.30598123
-29.77814306 4.630494724 -22.30598123
-29.77814306 3.630494724 41.69401877
-29.77814306 4.630494724 42.69401877
-30.77814306 5.630494724 -27.30598123
-29.77814306 4.630494724 -27.30598123
-29.77814306 5.630494724 -28.30598123
-29.77814306 5.630494724 -26.30598123
-29.77814306 5.630494724 -21.30598123
-30.77814306 5.630494724 -20.30598123
-29.77814306 5.630494724 -21.30598123
-30.77814306 5.630494724 -19.30598123
-30.77814306 5.630494724 -18.30598123
-29.77814306 5.630494724 42.69401877
-29.77814306 6.630494724 -27.30598123
-29.77814306 6.630494724 -20.30598123
-29.77814306 6.630494724 -19.30598123
-29.77814306 6.630494724 -18.30598123
-29.77814306 6.630494724 -17.30598123
-29.77814306 6.630494724 -16.30598123
-29.77814306 6.630494724 -15.30598123
-29.77814306 6.630494724 -14.30598123
-29.77814306 6.630494724 -13.30598123
-29.77814306 6.630494724 -12.30598123
-29.77814306 6.630494724 -11.30598123
-29.77814306 6.630494724 -10.30598123
-29.77814306 6.630494724 -9.305981229
-29.77814306 6.630494724 -8.305981229
-29.77814306 6.630494724 -7.305981229
-29.77814306 6.630494724 -6.305981229
-30.77814306 6.630494724 -5.305981229
-29.77814306 6.630494724 -6.305981229
-30.77814306 6.630494724 -4.305981229
-30.77814306 6.630494724 -2.305981229
-30.77814306 6.630494724 -1.305981229
-29.77814306 6.630494724 42.69401877
-29.77814306 7.630494724 -5.305981229
-29.77814306 7.630494724 -4.305981229
-29.77814306 7.630494724 -3.305981229
-29.77814306 7.630494724 -2.305981229
-29.77814306 7.630494724 -1.305981229
-29.77814306 7.630494724 -0.3059812291
-30.77814306 7.630494724 0.6940187709
-29.77814306 7.630494724 -0.3059812291
-30.77814306 7.630494724 10.69401877
-30.77814306 7.630494724 11.69401877
-30.77814306 7.630494724 12.69401877
-30.77814306 7.630494724 13.69401877
-30.77814306 7.630494724 14.69401877
-30.77814306 7.630494724 15.69401877
-30.77814306 7.630494724 16.69401877
-29.77814306 7.630494724 41.69401877
-29.77814306 7.630494724 41.69401877
-30.77814306 8.630494724 -0.3059812291
-29.77814306 7.630494724 -0.3059812291
-29.77814306 8.630494724 -1.305981229
-30.77814306 8.630494724 0.6940187709
-30.77814306 8.630494724 8.694018771
-30.77814306 8.630494724 9.694018771
-30.77814306 8.630494724 10.69401877
-30.77814306 8.630494724 11.69401877
-30.77814306 8.630494724 12.69401877
-30.77814306 8.630494724 13.69401877
-30.77814306 8.630494724 14.69401877
-30.77814306 8.630494724 15.69401877
-30.77814306 8.630494724 16.69401877
-30.77814306 8.630494724 17.69401877
-30.77814306 8.630494724 18.69401877
-29.77814306 8.630494724 41.69401877
-30.77814306 9.630494724 -2.305981229
-29.77814306 8.630494724 -2.305981229
-29.77814306 9.630494724 -3.305981229
-30.77814306 9.630494724 -1.305981229
-29.77814306 8.630494724 -1.305981229
-30.77814306 9.630494724 7.694018771
-30.77814306 9.630494724 8.694018771
-30.77814306 9.630494724 9.694018771
-30.77814306 9.630494724 10.69401877
-30.77814306 9.630494724 11.69401877
-30.77814306 9.630494724 12.69401877
-29.77814306 9.630494724 13.69401877
-29.77814306 9.630494724 13.69401877
-29.77814306 9.630494724 14.69401877
-30.77814306 9.630494724 15.69401877
-29.77814306 9.630494724 14.69401877
-30.77814306 9.630494724 16.69401877
-30.77814306 9.630494724 17.69401877
-30.77814306 9.630494724 18.69401877
-30.77814306 9.630494724 19.69401877
-29.77814306 9.630494724 40.69401877
-29.77814306 9.630494724 40.69401877
-29.77814306 9.630494724 -8.305981229
-29.77814306 10.63049472 -9.305981229
-29.77814306 9.630494724 -7.305981229
-29.77814306 9.630494724 -6.305981229
-29.77814306 9.630494724 -5.305981229
-29.77814306 9.630494724 -4.305981229
-29.77814306 9.630494724 -3.305981229
-30.77814306 10.63049472 7.694018771
-30.77814306 10.63049472 8.694018771
-30.77814306 10.63049472 9.694018771
-30.77814306 10.63049472 10.69401877
-29.77814306 10.63049472 11.69401877
-29.77814306 10.63049472 11.69401877
-29.77814306 10.63049472 12.69401877
-29.77814306 10.63049472 15.69401877
-29.77814306 10.63049472 16.69401877
-29.77814306 10.63049472 17.69401877
-30.77814306 10.63049472 18.69401877
-29.77814306 10.63049472 17.69401877
-30.77814306 10.63049472 19.69401877
-29.77814306 10.63049472 39.69401877
-29.77814306 10.63049472 39.69401877
-30.77814306 11.63049472 -10.30598123
-29.77814306 10.63049472 -10.30598123
-29.77814306 11.63049472 -11.30598123
-29.77814306 10.63049472 -9.305981229
-30.77814306 11.63049472 7.694018771
-30.77814306 11.63049472 8.694018771
-30.77814306 11.63049472 9.694018771
-29.77814306 11.63049472 10.69401877
-29.77814306 11.63049472 10.69401877
-29.77814306 11.63049472 18.69401877
-29.77814306 11.63049472 19.69401877
-30.77814306 11.63049472 20.69401877
-29.77814306 11.63049472 19.69401877
-29.77814306 11.63049472 36.69401877
-29.77814306 11.63049472 36.69401877
-29.77814306 11.63049472 37.69401877
-29.77814306 11.63049472 38.69401877
-30.77814306 12.63049472 -11.30598123
-29.77814306 11.63049472 -11.30598123
-29.77814306 12.63049472 -12.30598123
-30.77814306 12.63049472 7.694018771
-30.77814306 12.63049472 8.694018771
-29.77814306 12.63049472 9.694018771
-29.77814306 12.63049472 9.694018771
-29.77814306 12.63049472 20.69401877
-29.77814306 12.63049472 21.69401877
-29.77814306 12.63049472 22.69401877
-29.77814306 12.63049472 23.69401877
-29.77814306 12.63049472 24.69401877
-29.77814306 12.63049472 25.69401877
-29.77814306 12.63049472 26.69401877
-29.77814306 12.63049472 27.69401877
-29.77814306 12.63049472 28.69401877
-29.77814306 12.63049472 29.69401877
-29.77814306 12.63049472 30.69401877
-29.77814306 12.63049472 31.69401877
-29.77814306 12.63049472 32.69401877
-29.77814306 12.63049472 33.69401877
-29.77814306 12.63049472 34.69401877
-29.77814306 12.63049472 35.69401877
-29.77814306 13.63049472 -11.30598123
-29.77814306 13.63049472 -10.30598123
-30.77814306 13.63049472 -9.305981229
-29.77814306 13.63049472 -10.30598123
-30.77814306 13.63049472 6.694018771
-30.77814306 13.63049472 7.694018771
-29.77814306 13.63049472 8.694018771
-29.77814306 13.63049472 8.694018771
-29.77814306 14.63049472 -9.305981229
-29.77814306 14.63049472 -8.305981229
-29.77814306 14.63049472 -7.305981229
-29.77814306 14.63049472 -6.305981229
-29.77814306 14.63049472 -5.305981229
-29.77814306 14.63049472 -4.305981229
-29.77814306 14.63049472 -3.305981229
-30.77814306 14.63049472 -2.305981229
-29.77814306 14.63049472 -3.305981229
-30.77814306 14.63049472 -1.305981229
-30.77814306 14.63049472 -0.3059812291
-30.77814306 14.63049472 5.694018771
-30.77814306 14.63049472 6.694018771
-29.77814306 14.63049472 7.694018771
-29.77814306 14.63049472 7.694018771
-29.77814306 15.63049472 -2.305981229
-29.77814306 15.63049472 -1.305981229
-30.77814306 15.63049472 -0.3059812291
-29.77814306 15.63049472 -1.305981229
-30.77814306 15.63049472 6.694018771
-30.77814306 15.63049472 7.694018771
-29.77814306 14.63049472 7.694018771
-29.77814306 15.63049472 8.694018771
-30.77814306 16.63049472 -1.305981229
-29.77814306 15.63049472 -1.305981229
-29.77814306 16.63049472 -2.305981229
-30.77814306 16.63049472 8.694018771
-29.77814306 15.63049472 8.694018771
-29.77814306 16.63049472 9.694018771
-30.77814306 16.63049472 27.69401877
-29.77814306 15.63049472 27.69401877
-29.77814306 16.63049472 26.69401877
-30.77814306 16.63049472 28.69401877
-29.77814306 15.63049472 28.69401877
-30.77814306 16.63049472 29.69401877
-29.77814306 15.63049472 29.69401877
-30.77814306 16.63049472 30.69401877
-29.77814306 15.63049472 30.69401877
-29.77814306 15.63049472 31.69401877
-29.77814306 15.63049472 32.69401877
-29.77814306 16.63049472 33.69401877
-29.77814306 17.63049472 -2.305981229
-30.77814306 17.63049472 8.694018771
-30.77814306 17.63049472 9.694018771
-29.77814306 16.63049472 9.694018771
-29.77814306 17.63049472 10.69401877
-30.77814306 17.63049472 26.69401877
-29.77814306 16.63049472 26.69401877
-29.77814306 17.63049472 25.69401877
-30.77814306 17.63049472 27.69401877
-30.77814306 17.63049472 28.69401877
-30.77814306 17.63049472 29.69401877
-29.77814306 17.63049472 33.69401877
-29.77814306 17.63049472 -2.305981229
-29.77814306 18.63049472 -3.305981229
-30.77814306 18.63049472 8.694018771
-29.77814306 18.63049472 9.694018771
-29.77814306 18.63049472 9.694018771
-29.77814306 18.63049472 26.69401877
-29.77814306 18.63049472 27.69401877
-29.77814306 18.63049472 28.69401877
-29.77814306 18.63049472 29.69401877
-29.77814306 18.63049472 30.69401877
-29.77814306 18.63049472 31.69401877
-29.77814306 18.63049472 32.69401877
-30.77814306 19.63049472 -4.305981229
-29.77814306 18.63049472 -4.305981229
-29.77814306 19.63049472 -5.305981229
-29.77814306 18.63049472 -3.305981229
-30.77814306 19.63049472 7.694018771
-29.77814306 19.63049472 8.694018771
-29.77814306 19.63049472 8.694018771
-29.77814306 20.63049472 -4.305981229
-29.77814306 20.63049472 -4.305981229
-30.77814306 20.63049472 7.694018771
-29.77814306 20.63049472 8.694018771
-29.77814306 21.63049472 -3.305981229
-29.77814306 21.63049472 -2.305981229
-29.77814306 21.63049472 -2.305981229
-30.77814306 21.63049472 7.694018771
-30.77814306 21.63049472 8.694018771
-29.77814306 20.63049472 8.694018771
-29.77814306 21.63049472 9.694018771
-29.77814306 22.63049472 -1.305981229
-29.77814306 22.63049472 -0.3059812291
-30.77814306 22.63049472 0.6940187709
-29.77814306 22.63049472 -0.3059812291
-30.77814306 22.63049472 6.694018771
-30.77814306 22.63049472 7.694018771
-29.77814306 22.63049472 8.694018771
-29.77814306 22.63049472 8.694018771
-29.77814306 23.63049472 0.6940187709
-29.77814306 23.63049472 1.694018771
-29.77814306 23.63049472 2.694018771
-30.77814306 23.63049472 3.694018771
-29.77814306 23.63049472 2.694018771
-29.77814306 23.63049472 4.694018771
-29.77814306 23.63049472 4.694018771
-29.77814306 23.63049472 5.694018771
-29.77814306 23.63049472 6.694018771
-29.77814306 23.63049472 7.694018771
-29.77814306 24.63049472 3.694018771
-29.77814306 -33.36950528 14.69401877
-28.77814306 -34.36950528 14.69401877
-28.77814306 -33.36950528 13.69401877
-29.77814306 -33.36950528 15.69401877
-28.77814306 -34.36950528 15.69401877
-29.77814306 -33.36950528 16.69401877
-28.77814306 -34.36950528 16.69401877
-29.77814306 -33.36950528 17.69401877
-28.77814306 -34.36950528 17.69401877
-29.77814306 -33.36950528 18.69401877
-28.77814306 -34.36950528 18.69401877
-29.77814306 -33.36950528 19.69401877
-28.77814306 -34.36950528 19.69401877
-29.77814306 -33.36950528 20.69401877
-28.77814306 -34.36950528 20.69401877
-29.77814306 -33.36950528 21.69401877
-28.77814306 -34.36950528 21.69401877
-28.77814306 -33.36950528 22.69401877
-29.77814306 -32.36950528 12.69401877
-28.77814306 -33.36950528 12.69401877
-28.77814306 -32.36950528 11.69401877
-29.77814306 -32.36950528 13.69401877
-28.77814306 -33.36950528 13.69401877
-29.77814306 -32.36950528 14.69401877
-29.77814306 -32.36950528 22.69401877
-28.77814306 -33.36950528 22.69401877
-29.77814306 -32.36950528 23.69401877
-28.77814306 -33.36950528 23.69401877
-28.77814306 -32.36950528 24.69401877
-29.77814306 -31.36950528 10.69401877
-28.77814306 -32.36950528 10.69401877
-28.77814306 -31.36950528 9.694018771
-29.77814306 -31.36950528 11.69401877
-28.77814306 -32.36950528 11.69401877
-29.77814306 -31.36950528 12.69401877
-29.77814306 -31.36950528 24.69401877
-28.77814306 -32.36950528 24.69401877
-29.77814306 -31.36950528 25.69401877
-28.77814306 -32.36950528 25.69401877
-28.77814306 -31.36950528 26.69401877
-29.77814306 -30.36950528 9.694018771
-28.77814306 -31.36950528 9.694018771
-28.77814306 -30.36950528 8.694018771
-29.77814306 -30.36950528 10.69401877
-29.77814306 -30.36950528 11.69401877
-29.77814306 -30.36950528 26.69401877
-28.77814306 -31.36950528 26.69401877
-28.77814306 -30.36950528 27.69401877
-29.77814306 -29.36950528 8.694018771
-28.77814306 -30.36950528 8.694018771
-28.77814306 -29.36950528 7.694018771
-29.77814306 -29.36950528 9.694018771
-29.77814306 -29.36950528 10.69401877
-29.77814306 -29.36950528 27.69401877
-28.77814306 -30.36950528 27.69401877
-28.77814306 -29.36950528 28.69401877
-29.77814306 -28.36950528 7.694018771
-28.77814306 -29.36950528 7.694018771
-28.77814306 -28.36950528 6.694018771
-29.77814306 -28.36950528 8.694018771
-29.77814306 -28.36950528 9.694018771
-29.77814306 -28.36950528 10.69401877
-29.77814306 -28.36950528 28.69401877
-28.77814306 -29.36950528 28.69401877
-28.77814306 -28.36950528 29.69401877
-29.77814306 -27.36950528 6.694018771
-28.77814306 -28.36950528 6.694018771
-28.77814306 -27.36950528 5.694018771
-29.77814306 -27.36950528 7.694018771
-29.77814306 -27.36950528 8.694018771
-29.77814306 -27.36950528 9.694018771
-29.77814306 -27.36950528 28.69401877
-28.77814306 -27.36950528 29.69401877
-29.77814306 -26.36950528 6.694018771
-28.77814306 -26.36950528 5.694018771
-29.77814306 -26.36950528 7.694018771
-29.77814306 -26.36950528 8.694018771
-29.77814306 -26.36950528 9.694018771
-29.77814306 -26.36950528 28.69401877
-28.77814306 -26.36950528 29.69401877
-29.77814306 -25.36950528 6.694018771
-28.77814306 -25.36950528 5.694018771
-29.77814306 -25.36950528 7.694018771
-29.77814306 -25.36950528 8.694018771
-29.77814306 -25.36950528 9.694018771
-29.77814306 -25.36950528 26.69401877
-29.77814306 -25.36950528 27.69401877
-28.77814306 -25.36950528 28.69401877
-28.77814306 -25.36950528 28.69401877
-29.77814306 -24.36950528 6.694018771
-28.77814306 -24.36950528 5.694018771
-29.77814306 -24.36950528 7.694018771
-29.77814306 -24.36950528 8.694018771
-29.77814306 -24.36950528 9.694018771
-29.77814306 -24.36950528 10.69401877
-29.77814306 -24.36950528 24.69401877
-29.77814306 -24.36950528 25.69401877
-29.77814306 -24.36950528 26.69401877
-28.77814306 -24.36950528 27.69401877
-28.77814306 -24.36950528 27.69401877
-29.77814306 -23.36950528 6.694018771
-28.77814306 -23.36950528 5.694018771
-29.77814306 -23.36950528 7.694018771
-29.77814306 -23.36950528 8.694018771
-29.77814306 -23.36950528 9.694018771
-29.77814306 -23.36950528 10.69401877
-29.77814306 -23.36950528 11.69401877
-29.77814306 -23.36950528 22.69401877
-29.77814306 -23.36950528 23.69401877
-29.77814306 -23.36950528 24.69401877
-28.77814306 -23.36950528 25.69401877
-28.77814306 -23.36950528 25.69401877
-28.77814306 -23.36950528 26.69401877
-28.77814306 -22.36950528 6.694018771
-29.77814306 -22.36950528 7.694018771
-28.77814306 -22.36950528 6.694018771
-29.77814306 -22.36950528 8.694018771
-29.77814306 -22.36950528 9.694018771
-29.77814306 -22.36950528 10.69401877
-29.77814306 -22.36950528 11.69401877
-29.77814306 -22.36950528 12.69401877
-29.77814306 -22.36950528 18.69401877
-29.77814306 -22.36950528 19.69401877
-29.77814306 -22.36950528 20.69401877
-29.77814306 -22.36950528 21.69401877
-29.77814306 -22.36950528 22.69401877
-29.77814306 -22.36950528 23.69401877
-28.77814306 -22.36950528 24.69401877
-28.77814306 -22.36950528 24.69401877
-29.77814306 -21.36950528 7.694018771
-28.77814306 -21.36950528 6.694018771
-29.77814306 -21.36950528 8.694018771
-29.77814306 -21.36950528 9.694018771
-29.77814306 -21.36950528 10.69401877
-29.77814306 -21.36950528 11.69401877
-29.77814306 -21.36950528 12.69401877
-29.77814306 -21.36950528 13.69401877
-29.77814306 -21.36950528 14.69401877
-29.77814306 -21.36950528 15.69401877
-29.77814306 -21.36950528 16.69401877
-29.77814306 -21.36950528 17.69401877
-29.77814306 -21.36950528 18.69401877
-29.77814306 -21.36950528 19.69401877
-29.77814306 -21.36950528 20.69401877
-29.77814306 -21.36950528 21.69401877
-29.77814306 -21.36950528 22.69401877
-28.77814306 -21.36950528 23.69401877
-28.77814306 -21.36950528 23.69401877
-29.77814306 -20.36950528 7.694018771
-28.77814306 -20.36950528 6.694018771
-29.77814306 -20.36950528 8.694018771
-29.77814306 -20.36950528 9.694018771
-29.77814306 -20.36950528 10.69401877
-29.77814306 -20.36950528 11.69401877
-29.77814306 -20.36950528 12.69401877
-29.77814306 -20.36950528 13.69401877
-29.77814306 -20.36950528 14.69401877
-29.77814306 -20.36950528 15.69401877
-29.77814306 -20.36950528 16.69401877
-29.77814306 -20.36950528 17.69401877
-29.77814306 -20.36950528 18.69401877
-29.77814306 -20.36950528 19.69401877
-29.77814306 -20.36950528 20.69401877
-29.77814306 -20.36950528 21.69401877
-28.77814306 -20.36950528 22.69401877
-28.77814306 -20.36950528 22.69401877
-29.77814306 -19.36950528 7.694018771
-28.77814306 -19.36950528 6.694018771
-29.77814306 -19.36950528 8.694018771
-29.77814306 -19.36950528 9.694018771
-29.77814306 -19.36950528 10.69401877
-29.77814306 -19.36950528 11.69401877
-29.77814306 -19.36950528 12.69401877
-29.77814306 -19.36950528 13.69401877
-29.77814306 -19.36950528 14.69401877
-29.77814306 -19.36950528 15.69401877
-29.77814306 -19.36950528 16.69401877
-29.77814306 -19.36950528 17.69401877
-29.77814306 -19.36950528 18.69401877
-29.77814306 -19.36950528 19.69401877
-29.77814306 -19.36950528 20.69401877
-28.77814306 -19.36950528 21.69401877
-28.77814306 -19.36950528 21.69401877
-29.77814306 -18.36950528 7.694018771
-28.77814306 -18.36950528 6.694018771
-29.77814306 -18.36950528 8.694018771
-29.77814306 -18.36950528 9.694018771
-29.77814306 -18.36950528 10.69401877
-29.77814306 -18.36950528 11.69401877
-29.77814306 -18.36950528 12.69401877
-29.77814306 -18.36950528 13.69401877
-29.77814306 -18.36950528 14.69401877
-29.77814306 -18.36950528 15.69401877
-29.77814306 -18.36950528 16.69401877
-29.77814306 -18.36950528 17.69401877
-29.77814306 -18.36950528 18.69401877
-29.77814306 -18.36950528 19.69401877
-28.77814306 -18.36950528 20.69401877
-28.77814306 -18.36950528 20.69401877
-29.77814306 -17.36950528 5.694018771
-28.77814306 -18.36950528 5.694018771
-28.77814306 -17.36950528 4.694018771
-29.77814306 -17.36950528 6.694018771
-28.77814306 -18.36950528 6.694018771
-29.77814306 -17.36950528 7.694018771
-29.77814306 -17.36950528 8.694018771
-29.77814306 -17.36950528 9.694018771
-29.77814306 -17.36950528 10.69401877
-29.77814306 -17.36950528 11.69401877
-29.77814306 -17.36950528 12.69401877
-29.77814306 -17.36950528 13.69401877
-29.77814306 -17.36950528 14.69401877
-29.77814306 -17.36950528 15.69401877
-29.77814306 -17.36950528 16.69401877
-29.77814306 -17.36950528 17.69401877
-29.77814306 -17.36950528 18.69401877
-29.77814306 -17.36950528 19.69401877
-28.77814306 -17.36950528 20.69401877
-29.77814306 -16.36950528 -23.30598123
-28.77814306 -17.36950528 -23.30598123
-28.77814306 -16.36950528 -24.30598123
-29.77814306 -16.36950528 -22.30598123
-28.77814306 -17.36950528 -22.30598123
-29.77814306 -16.36950528 -21.30598123
-28.77814306 -17.36950528 -21.30598123
-29.77814306 -16.36950528 -20.30598123
-28.77814306 -17.36950528 -20.30598123
-29.77814306 -16.36950528 -19.30598123
-28.77814306 -17.36950528 -19.30598123
-29.77814306 -16.36950528 -18.30598123
-28.77814306 -17.36950528 -18.30598123
-29.77814306 -16.36950528 -17.30598123
-28.77814306 -17.36950528 -17.30598123
-28.77814306 -16.36950528 -16.30598123
-29.77814306 -16.36950528 4.694018771
-28.77814306 -17.36950528 4.694018771
-28.77814306 -16.36950528 3.694018771
-29.77814306 -16.36950528 5.694018771
-29.77814306 -16.36950528 6.694018771
-29.77814306 -16.36950528 7.694018771
-29.77814306 -16.36950528 8.694018771
-29.77814306 -16.36950528 9.694018771
-29.77814306 -16.36950528 10.69401877
-29.77814306 -16.36950528 11.69401877
-29.77814306 -16.36950528 12.69401877
-29.77814306 -16.36950528 13.69401877
-29.77814306 -16.36950528 14.69401877
-29.77814306 -16.36950528 15.69401877
-29.77814306 -16.36950528 16.69401877
-29.77814306 -16.36950528 17.69401877
-29.77814306 -16.36950528 18.69401877
-28.77814306 -16.36950528 19.69401877
-28.77814306 -16.36950528 19.69401877
-29.77814306 -15.36950528 -30.30598123
-28.77814306 -16.36950528 -30.30598123
-28.77814306 -15.36950528 -31.30598123
-29.77814306 -15.36950528 -29.30598123
-28.77814306 -16.36950528 -29.30598123
-28.77814306 -16.36950528 -28.30598123
-28.77814306 -16.36950528 -27.30598123
-28.77814306 -16.36950528 -26.30598123
-28.77814306 -16.36950528 -25.30598123
-28.77814306 -16.36950528 -24.30598123
-28.77814306 -16.36950528 -16.30598123
-29.77814306 -15.36950528 -15.30598123
-28.77814306 -16.36950528 -15.30598123
-29.77814306 -15.36950528 -14.30598123
-28.77814306 -16.36950528 -14.30598123
-29.77814306 -15.36950528 -13.30598123
-28.77814306 -16.36950528 -13.30598123
-29.77814306 -15.36950528 -12.30598123
-28.77814306 -16.36950528 -12.30598123
-29.77814306 -15.36950528 -11.30598123
-28.77814306 -16.36950528 -11.30598123
-29.77814306 -15.36950528 -10.30598123
-28.77814306 -16.36950528 -10.30598123
-29.77814306 -15.36950528 -9.305981229
-28.77814306 -16.36950528 -9.305981229
-28.77814306 -15.36950528 -8.305981229
-29.77814306 -15.36950528 2.694018771
-28.77814306 -16.36950528 2.694018771
-28.77814306 -15.36950528 1.694018771
-29.77814306 -15.36950528 3.694018771
-28.77814306 -16.36950528 3.694018771
-29.77814306 -15.36950528 4.694018771
-29.77814306 -15.36950528 5.694018771
-29.77814306 -15.36950528 6.694018771
-29.77814306 -15.36950528 14.69401877
-29.77814306 -15.36950528 15.69401877
-29.77814306 -15.36950528 16.69401877
-29.77814306 -15.36950528 17.69401877
-29.77814306 -15.36950528 18.69401877
-28.77814306 -15.36950528 19.69401877
-29.77814306 -14.36950528 -34.30598123
-28.77814306 -15.36950528 -34.30598123
-28.77814306 -14.36950528 -35.30598123
-28.77814306 -15.36950528 -33.30598123
-28.77814306 -15.36950528 -32.30598123
-28.77814306 -15.36950528 -31.30598123
-29.77814306 -14.36950528 -11.30598123
-29.77814306 -14.36950528 -10.30598123
-29.77814306 -14.36950528 -9.305981229
-29.77814306 -14.36950528 -8.305981229
-28.77814306 -15.36950528 -8.305981229
-29.77814306 -14.36950528 -7.305981229
-28.77814306 -15.36950528 -7.305981229
-29.77814306 -14.36950528 -6.305981229
-28.77814306 -15.36950528 -6.305981229
-29.77814306 -14.36950528 -5.305981229
-28.77814306 -15.36950528 -5.305981229
-29.77814306 -14.36950528 -4.305981229
-28.77814306 -15.36950528 -4.305981229
-29.77814306 -14.36950528 -3.305981229
-28.77814306 -15.36950528 -3.305981229
-29.77814306 -14.36950528 -2.305981229
-28.77814306 -15.36950528 -2.305981229
-29.77814306 -14.36950528 -1.305981229
-28.77814306 -15.36950528 -1.305981229
-29.77814306 -14.36950528 -0.3059812291
-28.77814306 -15.36950528 -0.3059812291
-29.77814306 -14.36950528 0.6940187709
-28.77814306 -15.36950528 0.6940187709
-29.77814306 -14.36950528 1.694018771
-28.77814306 -15.36950528 1.694018771
-29.77814306 -14.36950528 2.694018771
-29.77814306 -14.36950528 3.694018771
-29.77814306 -14.36950528 4.694018771
-29.77814306 -14.36950528 15.69401877
-29.77814306 -14.36950528 16.69401877
-29.77814306 -14.36950528 17.69401877
-29.77814306 -14.36950528 18.69401877
-28.77814306 -14.36950528 19.69401877
-28.77814306 -13.36950528 -34.30598123
-28.77814306 -13.36950528 -33.30598123
-28.77814306 -13.36950528 -32.30598123
-28.77814306 -13.36950528 -31.30598123
-28.77814306 -13.36950528 -30.30598123
-28.77814306 -13.36950528 -29.30598123
-28.77814306 -13.36950528 -28.30598123
-28.77814306 -13.36950528 -27.30598123
-28.77814306 -13.36950528 -26.30598123
-28.77814306 -13.36950528 -25.30598123
-28.77814306 -13.36950528 -24.30598123
-29.77814306 -13.36950528 -23.30598123
-28.77814306 -13.36950528 -24.30598123
-29.77814306 -13.36950528 -22.30598123
-29.77814306 -13.36950528 -10.30598123
-29.77814306 -13.36950528 -9.305981229
-29.77814306 -13.36950528 -8.305981229
-29.77814306 -13.36950528 -7.305981229
-29.77814306 -13.36950528 -6.305981229
-29.77814306 -13.36950528 -5.305981229
-29.77814306 -13.36950528 -4.305981229
-29.77814306 -13.36950528 -3.305981229
-29.77814306 -13.36950528 -2.305981229
-29.77814306 -13.36950528 -1.305981229
-29.77814306 -13.36950528 -0.3059812291
-29.77814306 -13.36950528 0.6940187709
-29.77814306 -13.36950528 1.694018771
-29.77814306 -13.36950528 15.69401877
-29.77814306 -13.36950528 16.69401877
-29.77814306 -13.36950528 17.69401877
-29.77814306 -13.36950528 18.69401877
-28.77814306 -13.36950528 19.69401877
-29.77814306 -12.36950528 -25.30598123
-28.77814306 -13.36950528 -25.30598123
-28.77814306 -12.36950528 -26.30598123
-29.77814306 -12.36950528 -24.30598123
-28.77814306 -13.36950528 -24.30598123
-29.77814306 -12.36950528 -9.305981229
-29.77814306 -12.36950528 -8.305981229
-29.77814306 -12.36950528 -7.305981229
-29.77814306 -12.36950528 -6.305981229
-29.77814306 -12.36950528 -5.305981229
-29.77814306 -12.36950528 -4.305981229
-29.77814306 -12.36950528 -3.305981229
-29.77814306 -12.36950528 -2.305981229
-29.77814306 -12.36950528 -1.305981229
-29.77814306 -12.36950528 -0.3059812291
-29.77814306 -12.36950528 16.69401877
-29.77814306 -12.36950528 17.69401877
-29.77814306 -12.36950528 18.69401877
-29.77814306 -12.36950528 19.69401877
-28.77814306 -13.36950528 19.69401877
-29.77814306 -12.36950528 20.69401877
-28.77814306 -13.36950528 20.69401877
-28.77814306 -12.36950528 21.69401877
-28.77814306 -11.36950528 -25.30598123
-28.77814306 -11.36950528 -24.30598123
-28.77814306 -11.36950528 -23.30598123
-28.77814306 -11.36950528 -22.30598123
-28.77814306 -11.36950528 -21.30598123
-28.77814306 -11.36950528 -20.30598123
-29.77814306 -11.36950528 -19.30598123
-28.77814306 -11.36950528 -20.30598123
-29.77814306 -11.36950528 -9.305981229
-29.77814306 -11.36950528 -8.305981229
-29.77814306 -11.36950528 -7.305981229
-29.77814306 -11.36950528 -6.305981229
-29.77814306 -11.36950528 -5.305981229
-29.77814306 -11.36950528 -4.305981229
-29.77814306 -11.36950528 -3.305981229
-29.77814306 -11.36950528 17.69401877
-29.77814306 -11.36950528 18.69401877
-29.77814306 -11.36950528 19.69401877
-28.77814306 -12.36950528 21.69401877
-28.77814306 -12.36950528 22.69401877
-28.77814306 -12.36950528 23.69401877
-28.77814306 -12.36950528 24.69401877
-28.77814306 -12.36950528 25.69401877
-28.77814306 -12.36950528 26.69401877
-28.77814306 -12.36950528 27.69401877
-28.77814306 -12.36950528 28.69401877
-28.77814306 -12.36950528 29.69401877
-28.77814306 -12.36950528 30.69401877
-28.77814306 -12.36950528 31.69401877
-29.77814306 -11.36950528 32.69401877
-28.77814306 -12.36950528 32.69401877
-28.77814306 -11.36950528 33.69401877
-29.77814306 -10.36950528 -25.30598123
-28.77814306 -11.36950528 -25.30598123
-28.77814306 -10.36950528 -26.30598123
-28.77814306 -11.36950528 -24.30598123
-28.77814306 -11.36950528 -23.30598123
-28.77814306 -11.36950528 -22.30598123
-28.77814306 -11.36950528 -21.30598123
-28.77814306 -11.36950528 -20.30598123
-29.77814306 -10.36950528 -9.305981229
-29.77814306 -10.36950528 -8.305981229
-29.77814306 -10.36950528 -7.305981229
-29.77814306 -10.36950528 -6.305981229
-29.77814306 -10.36950528 -5.305981229
-29.77814306 -10.36950528 -4.305981229
-28.77814306 -11.36950528 33.69401877
-28.77814306 -11.36950528 34.69401877
-29.77814306 -10.36950528 35.69401877
-28.77814306 -11.36950528 35.69401877
-28.77814306 -10.36950528 36.69401877
-28.77814306 -9.369505276 -25.30598123
-28.77814306 -9.369505276 -24.30598123
-28.77814306 -9.369505276 -23.30598123
-28.77814306 -9.369505276 -22.30598123
-28.77814306 -9.369505276 -21.30598123
