# .PCD v0.7 - Point Cloud Data file format
VERSION 0.7
FIELDS x y z
SIZE 4 4 4
TYPE F F F
COUNT 1 1 1
WIDTH 1305
HEIGHT 1
VIEWPOINT 0 0 0 1 0 0 0
POINTS 1305
DATA ascii
18.42650857 -27.35253745 -1.40310816
18.42650857 -27.35253745 -0.40310816
18.42650857 -27.35253745 0.59689184
18.42650857 -27.35253745 1.59689184
18.42650857 -27.35253745 2.59689184
18.42650857 -27.35253745 3.59689184
18.42650857 -27.35253745 4.59689184
18.42650857 -27.35253745 5.59689184
18.42650857 -27.35253745 6.59689184
18.42650857 -27.35253745 7.59689184
18.42650857 -27.35253745 8.59689184
18.42650857 -27.35253745 9.59689184
19.42650857 -28.35253745 9.59689184
19.42650857 -27.35253745 10.59689184
18.42650857 -26.35253745 -3.40310816
19.42650857 -27.35253745 -3.40310816
19.42650857 -26.35253745 -4.40310816
18.42650857 -26.35253745 -2.40310816
18.42650857 -26.35253745 -1.40310816
18.42650857 -26.35253745 -0.40310816
18.42650857 -26.35253745 0.59689184
18.42650857 -26.35253745 1.59689184
18.42650857 -26.35253745 2.59689184
18.42650857 -26.35253745 3.59689184
18.42650857 -26.35253745 4.59689184
18.42650857 -26.35253745 5.59689184
18.42650857 -26.35253745 6.59689184
18.42650857 -26.35253745 7.59689184
18.42650857 -26.35253745 8.59689184
18.42650857 -26.35253745 9.59689184
18.42650857 -26.35253745 10.59689184
19.42650857 -27.35253745 10.59689184
19.42650857 -26.35253745 11.59689184
18.42650857 -25.35253745 -4.40310816
19.42650857 -26.35253745 -4.40310816
19.42650857 -25.35253745 -5.40310816
18.42650857 -25.35253745 -3.40310816
18.42650857 -25.35253745 -2.40310816
18.42650857 -25.35253745 -1.40310816
18.42650857 -25.35253745 -0.40310816
18.42650857 -25.35253745 0.59689184
18.42650857 -25.35253745 1.59689184
18.42650857 -25.35253745 2.59689184
18.42650857 -25.35253745 3.59689184
18.42650857 -25.35253745 4.59689184
18.42650857 -25.35253745 5.59689184
18.42650857 -25.35253745 6.59689184
18.42650857 -25.35253745 7.59689184
18.42650857 -25.35253745 8.59689184
18.42650857 -25.35253745 9.59689184
18.42650857 -25.35253745 10.59689184
18.42650857 -25.35253745 11.59689184
19.42650857 -26.35253745 11.59689184
19.42650857 -25.35253745 12.59689184
18.42650857 -24.35253745 -5.40310816
19.42650857 -25.35253745 -5.40310816
19.42650857 -24.35253745 -6.40310816
18.42650857 -24.35253745 -4.40310816
18.42650857 -24.35253745 -3.40310816
18.42650857 -24.35253745 -2.40310816
18.42650857 -24.35253745 -1.40310816
18.42650857 -24.35253745 -0.40310816
18.42650857 -24.35253745 0.59689184
18.42650857 -24.35253745 1.59689184
18.42650857 -24.35253745 2.59689184
18.42650857 -24.35253745 3.59689184
18.42650857 -24.35253745 4.59689184
18.42650857 -24.35253745 5.59689184
18.42650857 -24.35253745 6.59689184
18.42650857 -24.35253745 7.59689184
18.42650857 -24.35253745 8.59689184
18.42650857 -24.35253745 9.59689184
18.42650857 -24.35253745 10.59689184
18.42650857 -24.35253745 11.59689184
18.42650857 -24.35253745 12.59689184
19.42650857 -25.35253745 12.59689184
19.42650857 -24.35253745 13.59689184
18.42650857 -23.35253745 -6.40310816
19.42650857 -24.35253745 -6.40310816
19.42650857 -23.35253745 -7.40310816
18.42650857 -23.35253745 -5.40310816
18.42650857 -23.35253745 -4.40310816
18.42650857 -23.35253745 -3.40310816
18.42650857 -23.35253745 -2.40310816
18.42650857 -23.35253745 -1.40310816
18.42650857 -23.35253745 -0.40310816
18.42650857 -23.35253745 0.59689184
18.42650857 -23.35253745 1.59689184
18.42650857 -23.35253745 2.59689184
18.42650857 -23.35253745 3.59689184
18.42650857 -23.35253745 4.59689184
18.42650857 -23.35253745 5.59689184
18.42650857 -23.35253745 6.59689184
18.42650857 -23.35253745 7.59689184
18.42650857 -23.35253745 8.59689184
18.42650857 -23.35253745 9.59689184
18.42650857 -23.35253745 10.59689184
18.42650857 -23.35253745 11.59689184
18.42650857 -23.35253745 12.59689184
19.42650857 -23.35253745 13.59689184
18.42650857 -22.35253745 -6.40310816
19.42650857 -22.35253745 -7.40310816
18.42650857 -22.35253745 -5.40310816
18.42650857 -22.35253745 -4.40310816
18.42650857 -22.35253745 -3.40310816
18.42650857 -22.35253745 -2.40310816
18.42650857 -22.35253745 -1.40310816
18.42650857 -22.35253745 -0.40310816
18.42650857 -22.35253745 0.59689184
18.42650857 -22.35253745 1.59689184
18.42650857 -22.35253745 9.59689184
18.42650857 -22.35253745 10.59689184
18.42650857 -22.35253745 11.59689184
18.42650857 -22.35253745 12.59689184
19.42650857 -22.35253745 13.59689184
18.42650857 -21.35253745 -7.40310816
19.42650857 -22.35253745 -7.40310816
19.42650857 -21.35253745 -8.40310816
18.42650857 -21.35253745 -6.40310816
18.42650857 -21.35253745 -5.40310816
18.42650857 -21.35253745 -4.40310816
18.42650857 -21.35253745 -3.40310816
18.42650857 -21.35253745 -2.40310816
18.42650857 -21.35253745 -1.40310816
18.42650857 -21.35253745 -0.40310816
18.42650857 -21.35253745 11.59689184
18.42650857 -21.35253745 12.59689184
19.42650857 -21.35253745 13.59689184
18.42650857 -20.35253745 -7.40310816
19.42650857 -20.35253745 -8.40310816
18.42650857 -20.35253745 -6.40310816
18.42650857 -20.35253745 -5.40310816
18.42650857 -20.35253745 -4.40310816
18.42650857 -20.35253745 -3.40310816
18.42650857 -20.35253745 -2.40310816
18.42650857 -20.35253745 -1.40310816
18.42650857 -20.35253745 -0.40310816
18.42650857 -20.35253745 11.59689184
18.42650857 -20.35253745 12.59689184
19.42650857 -20.35253745 13.59689184
18.42650857 -19.35253745 -7.40310816
19.42650857 -19.35253745 -8.40310816
18.42650857 -19.35253745 -6.40310816
18.42650857 -19.35253745 -5.40310816
18.42650857 -19.35253745 -4.40310816
18.42650857 -19.35253745 -3.40310816
18.42650857 -19.35253745 -2.40310816
18.42650857 -19.35253745 -1.40310816
18.42650857 -19.35253745 12.59689184
19.42650857 -19.35253745 13.59689184
18.42650857 -18.35253745 -7.40310816
19.42650857 -18.35253745 -8.40310816
18.42650857 -18.35253745 -6.40310816
18.42650857 -18.35253745 -5.40310816
18.42650857 -18.35253745 -4.40310816
18.42650857 -18.35253745 -3.40310816
18.42650857 -18.35253745 -2.40310816
18.42650857 -18.35253745 11.59689184
18.42650857 -18.35253745 12.59689184
19.42650857 -18.35253745 13.59689184
18.42650857 -17.35253745 -7.40310816
19.42650857 -17.35253745 -8.40310816
18.42650857 -17.35253745 -6.40310816
18.42650857 -17.35253745 -5.40310816
18.42650857 -17.35253745 -4.40310816
18.42650857 -17.35253745 -3.40310816
18.42650857 -17.35253745 -2.40310816
18.42650857 -17.35253745 11.59689184
18.42650857 -17.35253745 12.59689184
19.42650857 -17.35253745 13.59689184
18.42650857 -16.35253745 -7.40310816
19.42650857 -16.35253745 -8.40310816
18.42650857 -16.35253745 -6.40310816
18.42650857 -16.35253745 -5.40310816
18.42650857 -16.35253745 -4.40310816
18.42650857 -16.35253745 -3.40310816
18.42650857 -16.35253745 11.59689184
18.42650857 -16.35253745 12.59689184
19.42650857 -16.35253745 13.59689184
18.42650857 -15.35253745 -7.40310816
19.42650857 -15.35253745 -8.40310816
18.42650857 -15.35253745 -6.40310816
18.42650857 -15.35253745 -5.40310816
18.42650857 -15.35253745 -4.40310816
18.42650857 -15.35253745 -3.40310816
18.42650857 -15.35253745 11.59689184
19.42650857 -15.35253745 12.59689184
19.42650857 -15.35253745 12.59689184
18.42650857 -14.35253745 -8.40310816
19.42650857 -15.35253745 -8.40310816
19.42650857 -14.35253745 -9.40310816
18.42650857 -14.35253745 -7.40310816
18.42650857 -14.35253745 -6.40310816
18.42650857 -14.35253745 -5.40310816
18.42650857 -14.35253745 -4.40310816
18.42650857 -14.35253745 11.59689184
19.42650857 -14.35253745 12.59689184
18.42650857 -13.35253745 -8.40310816
19.42650857 -13.35253745 -9.40310816
18.42650857 -13.35253745 -7.40310816
18.42650857 -13.35253745 -6.40310816
18.42650857 -13.35253745 -5.40310816
18.42650857 -13.35253745 -4.40310816
18.42650857 -13.35253745 11.59689184
19.42650857 -13.35253745 12.59689184
18.42650857 -12.35253745 -8.40310816
19.42650857 -12.35253745 -9.40310816
18.42650857 -12.35253745 -7.40310816
18.42650857 -12.35253745 -6.40310816
18.42650857 -12.35253745 -5.40310816
18.42650857 -12.35253745 11.59689184
19.42650857 -12.35253745 12.59689184
18.42650857 -11.35253745 -8.40310816
19.42650857 -11.35253745 -9.40310816
18.42650857 -11.35253745 -7.40310816
18.42650857 -11.35253745 -6.40310816
18.42650857 -11.35253745 -5.40310816
18.42650857 -11.35253745 11.59689184
19.42650857 -11.35253745 12.59689184
18.42650857 -10.35253745 -8.40310816
19.42650857 -10.35253745 -9.40310816
18.42650857 -10.35253745 -7.40310816
18.42650857 -10.35253745 -6.40310816
18.42650857 -10.35253745 -5.40310816
18.42650857 -10.35253745 11.59689184
19.42650857 -10.35253745 12.59689184
18.42650857 -9.35253745 -9.40310816
19.42650857 -10.35253745 -9.40310816
19.42650857 -9.35253745 -10.40310816
18.42650857 -9.35253745 -8.40310816
18.42650857 -9.35253745 -7.40310816
18.42650857 -9.35253745 -6.40310816
18.42650857 -9.35253745 -5.40310816
18.42650857 -9.35253745 10.59689184
18.42650857 -9.35253745 11.59689184
19.42650857 -9.35253745 12.59689184
18.42650857 -8.35253745 -9.40310816
19.42650857 -8.35253745 -10.40310816
18.42650857 -8.35253745 -8.40310816
18.42650857 -8.35253745 -7.40310816
18.42650857 -8.35253745 -6.40310816
18.42650857 -8.35253745 -5.40310816
18.42650857 -8.35253745 10.59689184
18.42650857 -8.35253745 11.59689184
19.42650857 -8.35253745 12.59689184
18.42650857 -7.35253745 -9.40310816
19.42650857 -7.35253745 -10.40310816
18.42650857 -7.35253745 -8.40310816
18.42650857 -7.35253745 -7.40310816
18.42650857 -7.35253745 -6.40310816
18.42650857 -7.35253745 -5.40310816
18.42650857 -7.35253745 10.59689184
19.42650857 -7.35253745 11.59689184
19.42650857 -7.35253745 11.59689184
18.42650857 -6.35253745 -9.40310816
19.42650857 -6.35253745 -10.40310816
18.42650857 -6.35253745 -8.40310816
18.42650857 -6.35253745 -7.40310816
18.42650857 -6.35253745 -6.40310816
18.42650857 -6.35253745 -5.40310816
18.42650857 -6.35253745 -4.40310816
18.42650857 -6.35253745 10.59689184
19.42650857 -6.35253745 11.59689184
19.42650857 -5.35253745 -9.40310816
18.42650857 -5.35253745 -8.40310816
19.42650857 -5.35253745 -9.40310816
18.42650857 -5.35253745 -7.40310816
18.42650857 -5.35253745 -6.40310816
18.42650857 -5.35253745 -5.40310816
18.42650857 -5.35253745 -4.40310816
18.42650857 -5.35253745 9.59689184
18.42650857 -5.35253745 10.59689184
19.42650857 -5.35253745 11.59689184
18.42650857 -4.35253745 -8.40310816
19.42650857 -4.35253745 -9.40310816
18.42650857 -4.35253745 -7.40310816
18.42650857 -4.35253745 -6.40310816
18.42650857 -4.35253745 -5.40310816
18.42650857 -4.35253745 -4.40310816
18.42650857 -4.35253745 9.59689184
18.42650857 -4.35253745 10.59689184
19.42650857 -4.35253745 11.59689184
18.42650857 -3.35253745 -8.40310816
19.42650857 -3.35253745 -9.40310816
18.42650857 -3.35253745 -7.40310816
18.42650857 -3.35253745 -6.40310816
18.42650857 -3.35253745 -5.40310816
18.42650857 -3.35253745 -4.40310816
18.42650857 -3.35253745 -3.40310816
18.42650857 -3.35253745 8.59689184
18.42650857 -3.35253745 9.59689184
18.42650857 -3.35253745 10.59689184
19.42650857 -3.35253745 11.59689184
19.42650857 -2.35253745 -8.40310816
18.42650857 -2.35253745 -7.40310816
19.42650857 -2.35253745 -8.40310816
18.42650857 -2.35253745 -6.40310816
18.42650857 -2.35253745 -5.40310816
18.42650857 -2.35253745 -4.40310816
18.42650857 -2.35253745 -3.40310816
18.42650857 -2.35253745 -2.40310816
18.42650857 -2.35253745 8.59689184
18.42650857 -2.35253745 9.59689184
19.42650857 -2.35253745 10.59689184
19.42650857 -2.35253745 10.59689184
19.42650857 -1.35253745 -7.40310816
18.42650857 -1.35253745 -6.40310816
19.42650857 -1.35253745 -7.40310816
18.42650857 -1.35253745 -5.40310816
18.42650857 -1.35253745 -4.40310816
18.42650857 -1.35253745 -3.40310816
18.42650857 -1.35253745 -2.40310816
18.42650857 -1.35253745 -1.40310816
18.42650857 -1.35253745 6.59689184
18.42650857 -1.35253745 7.59689184
18.42650857 -1.35253745 8.59689184
18.42650857 -1.35253745 9.59689184
19.42650857 -1.35253745 10.59689184
19.42650857 -0.35253745 -6.40310816
18.42650857 -0.35253745 -5.40310816
19.42650857 -0.35253745 -6.40310816
18.42650857 -0.35253745 -4.40310816
18.42650857 -0.35253745 -3.40310816
18.42650857 -0.35253745 -2.40310816
18.42650857 -0.35253745 -1.40310816
18.42650857 -0.35253745 -0.40310816
18.42650857 -0.35253745 0.59689184
18.42650857 -0.35253745 5.59689184
18.42650857 -0.35253745 6.59689184
18.42650857 -0.35253745 7.59689184
18.42650857 -0.35253745 8.59689184
19.42650857 -0.35253745 9.59689184
19.42650857 -0.35253745 9.59689184
19.42650857 0.64746255 -5.40310816
19.42650857 0.64746255 -4.40310816
18.42650857 0.64746255 -3.40310816
19.42650857 0.64746255 -4.40310816
18.42650857 0.64746255 -2.40310816
18.42650857 0.64746255 -1.40310816
18.42650857 0.64746255 -0.40310816
18.42650857 0.64746255 0.59689184
18.42650857 0.64746255 1.59689184
18.42650857 0.64746255 2.59689184
18.42650857 0.64746255 3.59689184
18.42650857 0.64746255 4.59689184
18.42650857 0.64746255 5.59689184
18.42650857 0.64746255 6.59689184
18.42650857 0.64746255 7.59689184
19.42650857 0.64746255 8.59689184
19.42650857 0.64746255 8.59689184
19.42650857 1.64746255 -3.40310816
18.42650857 1.64746255 -2.40310816
19.42650857 1.64746255 -3.40310816
18.42650857 1.64746255 -1.40310816
18.42650857 1.64746255 -0.40310816
18.42650857 1.64746255 0.59689184
18.42650857 1.64746255 1.59689184
18.42650857 1.64746255 2.59689184
18.42650857 1.64746255 3.59689184
18.42650857 1.64746255 4.59689184
18.42650857 1.64746255 5.59689184
18.42650857 1.64746255 6.59689184
19.42650857 1.64746255 7.59689184
19.42650857 1.64746255 7.59689184
19.42650857 2.64746255 -2.40310816
19.42650857 2.64746255 -1.40310816
18.42650857 2.64746255 -0.40310816
19.42650857 2.64746255 -1.40310816
18.42650857 2.64746255 0.59689184
18.42650857 2.64746255 1.59689184
18.42650857 2.64746255 2.59689184
18.42650857 2.64746255 3.59689184
18.42650857 2.64746255 4.59689184
18.42650857 2.64746255 5.59689184
19.42650857 2.64746255 6.59689184
19.42650857 2.64746255 6.59689184
19.42650857 3.64746255 -0.40310816
19.42650857 3.64746255 0.59689184
18.42650857 3.64746255 1.59689184
19.42650857 3.64746255 0.59689184
18.42650857 3.64746255 2.59689184
18.42650857 3.64746255 3.59689184
19.42650857 3.64746255 4.59689184
19.42650857 3.64746255 4.59689184
19.42650857 3.64746255 5.59689184
19.42650857 4.64746255 1.59689184
19.42650857 4.64746255 2.59689184
19.42650857 4.64746255 3.59689184
19.42650857 -41.35253745 20.59689184
20.42650857 -42.35253745 20.59689184
20.42650857 -41.35253745 19.59689184
19.42650857 -41.35253745 21.59689184
20.42650857 -42.35253745 21.59689184
19.42650857 -41.35253745 22.59689184
20.42650857 -42.35253745 22.59689184
19.42650857 -41.35253745 23.59689184
20.42650857 -42.35253745 23.59689184
19.42650857 -41.35253745 24.59689184
20.42650857 -42.35253745 24.59689184
19.42650857 -41.35253745 25.59689184
20.42650857 -42.35253745 25.59689184
19.42650857 -41.35253745 26.59689184
20.42650857 -42.35253745 26.59689184
19.42650857 -41.35253745 27.59689184
20.42650857 -42.35253745 27.59689184
20.42650857 -41.35253745 28.59689184
19.42650857 -40.35253745 19.59689184
20.42650857 -41.35253745 19.59689184
20.42650857 -40.35253745 18.59689184
19.42650857 -40.35253745 20.59689184
19.42650857 -40.35253745 21.59689184
19.42650857 -40.35253745 26.59689184
19.42650857 -40.35253745 27.59689184
19.42650857 -40.35253745 28.59689184
20.42650857 -41.35253745 28.59689184
19.42650857 -40.35253745 29.59689184
20.42650857 -41.35253745 29.59689184
20.42650857 -40.35253745 30.59689184
19.42650857 -39.35253745 19.59689184
20.42650857 -39.35253745 18.59689184
19.42650857 -39.35253745 20.59689184
19.42650857 -39.35253745 21.59689184
19.42650857 -39.35253745 22.59689184
19.42650857 -39.35253745 23.59689184
19.42650857 -39.35253745 24.59689184
19.42650857 -39.35253745 25.59689184
20.42650857 -39.35253745 26.59689184
20.42650857 -39.35253745 26.59689184
20.42650857 -39.35253745 27.59689184
20.42650857 -39.35253745 28.59689184
20.42650857 -39.35253745 29.59689184
19.42650857 -38.35253745 19.59689184
20.42650857 -38.35253745 18.59689184
19.42650857 -38.35253745 20.59689184
19.42650857 -38.35253745 21.59689184
19.42650857 -38.35253745 22.59689184
20.42650857 -38.35253745 23.59689184
20.42650857 -38.35253745 23.59689184
20.42650857 -38.35253745 24.59689184
20.42650857 -38.35253745 25.59689184
19.42650857 -37.35253745 -9.40310816
20.42650857 -38.35253745 -9.40310816
20.42650857 -37.35253745 -10.40310816
19.42650857 -37.35253745 -8.40310816
20.42650857 -38.35253745 -8.40310816
19.42650857 -37.35253745 -7.40310816
20.42650857 -38.35253745 -7.40310816
19.42650857 -37.35253745 -6.40310816
20.42650857 -38.35253745 -6.40310816
20.42650857 -37.35253745 -5.40310816
20.42650857 -37.35253745 19.59689184
20.42650857 -37.35253745 20.59689184
20.42650857 -37.35253745 21.59689184
20.42650857 -37.35253745 22.59689184
19.42650857 -36.35253745 -10.40310816
20.42650857 -37.35253745 -10.40310816
20.42650857 -36.35253745 -11.40310816
19.42650857 -36.35253745 -9.40310816
19.42650857 -36.35253745 -8.40310816
19.42650857 -36.35253745 -7.40310816
19.42650857 -36.35253745 -6.40310816
19.42650857 -36.35253745 -5.40310816
20.42650857 -37.35253745 -5.40310816
19.42650857 -36.35253745 -4.40310816
20.42650857 -37.35253745 -4.40310816
20.42650857 -36.35253745 -3.40310816
19.42650857 -35.35253745 -10.40310816
20.42650857 -35.35253745 -11.40310816
19.42650857 -35.35253745 -9.40310816
19.42650857 -35.35253745 -8.40310816
19.42650857 -35.35253745 -7.40310816
19.42650857 -35.35253745 -6.40310816
19.42650857 -35.35253745 -5.40310816
19.42650857 -35.35253745 -4.40310816
19.42650857 -35.35253745 -3.40310816
20.42650857 -36.35253745 -3.40310816
19.42650857 -35.35253745 -2.40310816
20.42650857 -36.35253745 -2.40310816
19.42650857 -35.35253745 -1.40310816
20.42650857 -36.35253745 -1.40310816
19.42650857 -35.35253745 -0.40310816
20.42650857 -36.35253745 -0.40310816
20.42650857 -35.35253745 0.59689184
19.42650857 -34.35253745 -10.40310816
20.42650857 -34.35253745 -11.40310816
19.42650857 -34.35253745 -9.40310816
19.42650857 -34.35253745 -8.40310816
19.42650857 -34.35253745 -7.40310816
19.42650857 -34.35253745 -6.40310816
19.42650857 -34.35253745 -5.40310816
19.42650857 -34.35253745 -4.40310816
19.42650857 -34.35253745 -3.40310816
19.42650857 -34.35253745 -2.40310816
19.42650857 -34.35253745 -1.40310816
19.42650857 -34.35253745 -0.40310816
19.42650857 -34.35253745 0.59689184
20.42650857 -35.35253745 0.59689184
19.42650857 -34.35253745 1.59689184
20.42650857 -35.35253745 1.59689184
19.42650857 -34.35253745 2.59689184
20.42650857 -35.35253745 2.59689184
19.42650857 -34.35253745 3.59689184
20.42650857 -35.35253745 3.59689184
19.42650857 -34.35253745 4.59689184
20.42650857 -35.35253745 4.59689184
19.42650857 -34.35253745 5.59689184
20.42650857 -35.35253745 5.59689184
19.42650857 -34.35253745 6.59689184
20.42650857 -35.35253745 6.59689184
19.42650857 -34.35253745 7.59689184
20.42650857 -35.35253745 7.59689184
20.42650857 -34.35253745 8.59689184
19.42650857 -33.35253745 -10.40310816
20.42650857 -33.35253745 -11.40310816
19.42650857 -33.35253745 -9.40310816
19.42650857 -33.35253745 -8.40310816
19.42650857 -33.35253745 -7.40310816
19.42650857 -33.35253745 -6.40310816
19.42650857 -33.35253745 -5.40310816
19.42650857 -33.35253745 -4.40310816
19.42650857 -33.35253745 -3.40310816
19.42650857 -33.35253745 -2.40310816
19.42650857 -33.35253745 -1.40310816
19.42650857 -33.35253745 -0.40310816
19.42650857 -33.35253745 0.59689184
19.42650857 -33.35253745 1.59689184
19.42650857 -33.35253745 2.59689184
19.42650857 -33.35253745 3.59689184
19.42650857 -33.35253745 4.59689184
19.42650857 -33.35253745 5.59689184
19.42650857 -33.35253745 6.59689184
19.42650857 -33.35253745 7.59689184
19.42650857 -33.35253745 8.59689184
20.42650857 -34.35253745 8.59689184
19.42650857 -33.35253745 9.59689184
20.42650857 -34.35253745 9.59689184
19.42650857 -33.35253745 10.59689184
20.42650857 -34.35253745 10.59689184
19.42650857 -33.35253745 11.59689184
20.42650857 -34.35253745 11.59689184
20.42650857 -33.35253745 12.59689184
19.42650857 -32.35253745 -11.40310816
20.42650857 -33.35253745 -11.40310816
20.42650857 -32.35253745 -12.40310816
19.42650857 -32.35253745 -10.40310816
19.42650857 -32.35253745 -9.40310816
19.42650857 -32.35253745 -8.40310816
19.42650857 -32.35253745 -7.40310816
19.42650857 -32.35253745 -6.40310816
19.42650857 -32.35253745 -5.40310816
19.42650857 -32.35253745 -4.40310816
19.42650857 -32.35253745 -3.40310816
19.42650857 -32.35253745 -2.40310816
19.42650857 -32.35253745 -1.40310816
19.42650857 -32.35253745 -0.40310816
19.42650857 -32.35253745 0.59689184
19.42650857 -32.35253745 1.59689184
19.42650857 -32.35253745 2.59689184
19.42650857 -32.35253745 3.59689184
19.42650857 -32.35253745 4.59689184
19.42650857 -32.35253745 5.59689184
19.42650857 -32.35253745 6.59689184
19.42650857 -32.35253745 7.59689184
19.42650857 -32.35253745 8.59689184
19.42650857 -32.35253745 9.59689184
19.42650857 -32.35253745 10.59689184
19.42650857 -32.35253745 11.59689184
19.42650857 -32.35253745 12.59689184
20.42650857 -33.35253745 12.59689184
20.42650857 -32.35253745 13.59689184
19.42650857 -31.35253745 -11.40310816
20.42650857 -31.35253745 -12.40310816
19.42650857 -31.35253745 -10.40310816
19.42650857 -31.35253745 -9.40310816
19.42650857 -31.35253745 -8.40310816
19.42650857 -31.35253745 -7.40310816
19.42650857 -31.35253745 -6.40310816
19.42650857 -31.35253745 -5.40310816
19.42650857 -31.35253745 -4.40310816
19.42650857 -31.35253745 -3.40310816
19.42650857 -31.35253745 -2.40310816
19.42650857 -31.35253745 -1.40310816
19.42650857 -31.35253745 -0.40310816
19.42650857 -31.35253745 0.59689184
19.42650857 -31.35253745 1.59689184
19.42650857 -31.35253745 2.59689184
19.42650857 -31.35253745 3.59689184
19.42650857 -31.35253745 4.59689184
19.42650857 -31.35253745 5.59689184
19.42650857 -31.35253745 6.59689184
19.42650857 -31.35253745 7.59689184
19.42650857 -31.35253745 8.59689184
19.42650857 -31.35253745 9.59689184
19.42650857 -31.35253745 10.59689184
19.42650857 -31.35253745 11.59689184
19.42650857 -31.35253745 12.59689184
19.42650857 -31.35253745 13.59689184
20.42650857 -32.35253745 13.59689184
20.42650857 -31.35253745 14.59689184
19.42650857 -30.35253745 -11.40310816
20.42650857 -30.35253745 -12.40310816
19.42650857 -30.35253745 -10.40310816
19.42650857 -30.35253745 -9.40310816
19.42650857 -30.35253745 -8.40310816
19.42650857 -30.35253745 -7.40310816
19.42650857 -30.35253745 -6.40310816
19.42650857 -30.35253745 -5.40310816
19.42650857 -30.35253745 -4.40310816
19.42650857 -30.35253745 -3.40310816
19.42650857 -30.35253745 -2.40310816
19.42650857 -30.35253745 -1.40310816
19.42650857 -30.35253745 -0.40310816
19.42650857 -30.35253745 0.59689184
19.42650857 -30.35253745 1.59689184
19.42650857 -30.35253745 2.59689184
19.42650857 -30.35253745 3.59689184
19.42650857 -30.35253745 4.59689184
19.42650857 -30.35253745 5.59689184
19.42650857 -30.35253745 6.59689184
19.42650857 -30.35253745 7.59689184
19.42650857 -30.35253745 8.59689184
19.42650857 -30.35253745 9.59689184
19.42650857 -30.35253745 10.59689184
19.42650857 -30.35253745 11.59689184
19.42650857 -30.35253745 12.59689184
19.42650857 -30.35253745 13.59689184
20.42650857 -30.35253745 14.59689184
19.42650857 -29.35253745 -11.40310816
20.42650857 -29.35253745 -12.40310816
19.42650857 -29.35253745 -10.40310816
19.42650857 -29.35253745 -9.40310816
19.42650857 -29.35253745 -8.40310816
19.42650857 -29.35253745 -7.40310816
19.42650857 -29.35253745 -6.40310816
19.42650857 -29.35253745 -5.40310816
19.42650857 -29.35253745 -4.40310816
19.42650857 -29.35253745 -3.40310816
19.42650857 -29.35253745 -2.40310816
19.42650857 -29.35253745 -1.40310816
19.42650857 -29.35253745 -0.40310816
19.42650857 -29.35253745 8.59689184
19.42650857 -29.35253745 9.59689184
19.42650857 -29.35253745 10.59689184
19.42650857 -29.35253745 11.59689184
19.42650857 -29.35253745 12.59689184
19.42650857 -29.35253745 13.59689184
19.42650857 -29.35253745 14.59689184
20.42650857 -30.35253745 14.59689184
20.42650857 -29.35253745 15.59689184
19.42650857 -28.35253745 -11.40310816
20.42650857 -28.35253745 -12.40310816
19.42650857 -28.35253745 -10.40310816
19.42650857 -28.35253745 -9.40310816
19.42650857 -28.35253745 -8.40310816
19.42650857 -28.35253745 -7.40310816
19.42650857 -28.35253745 -6.40310816
19.42650857 -28.35253745 -5.40310816
19.42650857 -28.35253745 -4.40310816
19.42650857 -28.35253745 -3.40310816
19.42650857 -28.35253745 -2.40310816
19.42650857 -28.35253745 9.59689184
19.42650857 -28.35253745 10.59689184
19.42650857 -28.35253745 11.59689184
19.42650857 -28.35253745 12.59689184
19.42650857 -28.35253745 13.59689184
19.42650857 -28.35253745 14.59689184
20.42650857 -28.35253745 15.59689184
19.42650857 -27.35253745 -11.40310816
20.42650857 -27.35253745 -12.40310816
19.42650857 -27.35253745 -10.40310816
19.42650857 -27.35253745 -9.40310816
19.42650857 -27.35253745 -8.40310816
19.42650857 -27.35253745 -7.40310816
19.42650857 -27.35253745 -6.40310816
19.42650857 -27.35253745 -5.40310816
19.42650857 -27.35253745 -4.40310816
19.42650857 -27.35253745 -3.40310816
19.42650857 -27.35253745 10.59689184
19.42650857 -27.35253745 11.59689184
19.42650857 -27.35253745 12.59689184
19.42650857 -27.35253745 13.59689184
19.42650857 -27.35253745 14.59689184
20.42650857 -27.35253745 15.59689184
19.42650857 -26.35253745 -12.40310816
20.42650857 -27.35253745 -12.40310816
20.42650857 -26.35253745 -13.40310816
19.42650857 -26.35253745 -11.40310816
19.42650857 -26.35253745 -10.40310816
19.42650857 -26.35253745 -9.40310816
19.42650857 -26.35253745 -8.40310816
19.42650857 -26.35253745 -7.40310816
19.42650857 -26.35253745 -6.40310816
19.42650857 -26.35253745 -5.40310816
19.42650857 -26.35253745 -4.40310816
19.42650857 -26.35253745 11.59689184
19.42650857 -26.35253745 12.59689184
19.42650857 -26.35253745 13.59689184
19.42650857 -26.35253745 14.59689184
20.42650857 -26.35253745 15.59689184
19.42650857 -25.35253745 -12.40310816
20.42650857 -25.35253745 -13.40310816
19.42650857 -25.35253745 -11.40310816
19.42650857 -25.35253745 -10.40310816
19.42650857 -25.35253745 -9.40310816
19.42650857 -25.35253745 -8.40310816
19.42650857 -25.35253745 -7.40310816
19.42650857 -25.35253745 -6.40310816
19.42650857 -25.35253745 -5.40310816
19.42650857 -25.35253745 12.59689184
19.42650857 -25.35253745 13.59689184
19.42650857 -25.35253745 14.59689184
20.42650857 -25.35253745 15.59689184
19.42650857 -24.35253745 -12.40310816
20.42650857 -24.35253745 -13.40310816
19.42650857 -24.35253745 -11.40310816
19.42650857 -24.35253745 -10.40310816
19.42650857 -24.35253745 -9.40310816
19.42650857 -24.35253745 -8.40310816
19.42650857 -24.35253745 -7.40310816
19.42650857 -24.35253745 -6.40310816
19.42650857 -24.35253745 13.59689184
19.42650857 -24.35253745 14.59689184
20.42650857 -24.35253745 15.59689184
19.42650857 -23.35253745 -13.40310816
20.42650857 -24.35253745 -13.40310816
20.42650857 -23.35253745 -14.40310816
19.42650857 -23.35253745 -12.40310816
19.42650857 -23.35253745 -11.40310816
19.42650857 -23.35253745 -10.40310816
19.42650857 -23.35253745 -9.40310816
19.42650857 -23.35253745 -8.40310816
19.42650857 -23.35253745 -7.40310816
19.42650857 -23.35253745 13.59689184
19.42650857 -23.35253745 14.59689184
20.42650857 -23.35253745 15.59689184
19.42650857 -22.35253745 -13.40310816
20.42650857 -22.35253745 -14.40310816
19.42650857 -22.35253745 -12.40310816
19.42650857 -22.35253745 -11.40310816
19.42650857 -22.35253745 -10.40310816
19.42650857 -22.35253745 -9.40310816
19.42650857 -22.35253745 -8.40310816
19.42650857 -22.35253745 -7.40310816
19.42650857 -22.35253745 13.59689184
19.42650857 -22.35253745 14.59689184
20.42650857 -22.35253745 15.59689184
19.42650857 -21.35253745 -13.40310816
20.42650857 -21.35253745 -14.40310816
19.42650857 -21.35253745 -12.40310816
19.42650857 -21.35253745 -11.40310816
19.42650857 -21.35253745 -10.40310816
19.42650857 -21.35253745 -9.40310816
19.42650857 -21.35253745 -8.40310816
19.42650857 -21.35253745 13.59689184
19.42650857 -21.35253745 14.59689184
20.42650857 -21.35253745 15.59689184
19.42650857 -20.35253745 -13.40310816
20.42650857 -20.35253745 -14.40310816
19.42650857 -20.35253745 -12.40310816
19.42650857 -20.35253745 -11.40310816
19.42650857 -20.35253745 -10.40310816
19.42650857 -20.35253745 -9.40310816
19.42650857 -20.35253745 -8.40310816
19.42650857 -20.35253745 13.59689184
19.42650857 -20.35253745 14.59689184
20.42650857 -20.35253745 15.59689184
20.42650857 -19.35253745 -13.40310816
19.42650857 -19.35253745 -12.40310816
20.42650857 -19.35253745 -13.40310816
19.42650857 -19.35253745 -11.40310816
19.42650857 -19.35253745 -10.40310816
19.42650857 -19.35253745 -9.40310816
19.42650857 -19.35253745 -8.40310816
19.42650857 -19.35253745 13.59689184
19.42650857 -19.35253745 14.59689184
20.42650857 -19.35253745 15.59689184
19.42650857 -18.35253745 -12.40310816
20.42650857 -18.35253745 -13.40310816
19.42650857 -18.35253745 -11.40310816
19.42650857 -18.35253745 -10.40310816
19.42650857 -18.35253745 -9.40310816
19.42650857 -18.35253745 -8.40310816
19.42650857 -18.35253745 13.59689184
19.42650857 -18.35253745 14.59689184
20.42650857 -18.35253745 15.59689184
19.42650857 -17.35253745 -12.40310816
20.42650857 -17.35253745 -13.40310816
19.42650857 -17.35253745 -11.40310816
19.42650857 -17.35253745 -10.40310816
19.42650857 -17.35253745 -9.40310816
19.42650857 -17.35253745 -8.40310816
19.42650857 -17.35253745 13.59689184
20.42650857 -17.35253745 14.59689184
20.42650857 -17.35253745 14.59689184
19.42650857 -16.35253745 -12.40310816
20.42650857 -16.35253745 -13.40310816
19.42650857 -16.35253745 -11.40310816
19.42650857 -16.35253745 -10.40310816
19.42650857 -16.35253745 -9.40310816
19.42650857 -16.35253745 -8.40310816
19.42650857 -16.35253745 13.59689184
20.42650857 -16.35253745 14.59689184
19.42650857 -15.35253745 -12.40310816
20.42650857 -15.35253745 -13.40310816
19.42650857 -15.35253745 -11.40310816
19.42650857 -15.35253745 -10.40310816
19.42650857 -15.35253745 -9.40310816
19.42650857 -15.35253745 -8.40310816
19.42650857 -15.35253745 12.59689184
19.42650857 -15.35253745 13.59689184
20.42650857 -15.35253745 14.59689184
19.42650857 -14.35253745 -12.40310816
20.42650857 -14.35253745 -13.40310816
19.42650857 -14.35253745 -11.40310816
19.42650857 -14.35253745 -10.40310816
19.42650857 -14.35253745 -9.40310816
19.42650857 -14.35253745 12.59689184
19.42650857 -14.35253745 13.59689184
20.42650857 -14.35253745 14.59689184
19.42650857 -13.35253745 -12.40310816
20.42650857 -13.35253745 -13.40310816
19.42650857 -13.35253745 -11.40310816
19.42650857 -13.35253745 -10.40310816
19.42650857 -13.35253745 -9.40310816
19.42650857 -13.35253745 12.59689184
20.42650857 -13.35253745 13.59689184
20.42650857 -13.35253745 13.59689184
19.42650857 -12.35253745 -12.40310816
20.42650857 -12.35253745 -13.40310816
19.42650857 -12.35253745 -11.40310816
19.42650857 -12.35253745 -10.40310816
19.42650857 -12.35253745 -9.40310816
19.42650857 -12.35253745 12.59689184
20.42650857 -12.35253745 13.59689184
19.42650857 -11.35253745 -12.40310816
20.42650857 -11.35253745 -13.40310816
19.42650857 -11.35253745 -11.40310816
19.42650857 -11.35253745 -10.40310816
19.42650857 -11.35253745 -9.40310816
19.42650857 -11.35253745 12.59689184
20.42650857 -11.35253745 13.59689184
19.42650857 -10.35253745 -12.40310816
20.42650857 -10.35253745 -13.40310816
19.42650857 -10.35253745 -11.40310816
19.42650857 -10.35253745 -10.40310816
19.42650857 -10.35253745 -9.40310816
19.42650857 -10.35253745 12.59689184
20.42650857 -10.35253745 13.59689184
19.42650857 -9.35253745 -12.40310816
20.42650857 -9.35253745 -13.40310816
19.42650857 -9.35253745 -11.40310816
19.42650857 -9.35253745 -10.40310816
19.42650857 -9.35253745 12.59689184
20.42650857 -9.35253745 13.59689184
19.42650857 -8.35253745 -12.40310816
20.42650857 -8.35253745 -13.40310816
19.42650857 -8.35253745 -11.40310816
19.42650857 -8.35253745 -10.40310816
19.42650857 -8.35253745 12.59689184
20.42650857 -8.35253745 13.59689184
20.42650857 -7.35253745 -12.40310816
19.42650857 -7.35253745 -11.40310816
20.42650857 -7.35253745 -12.40310816
19.42650857 -7.35253745 -10.40310816
19.42650857 -7.35253745 11.59689184
20.42650857 -7.35253745 12.59689184
20.42650857 -7.35253745 12.59689184
19.42650857 -6.35253745 -11.40310816
20.42650857 -6.35253745 -12.40310816
19.42650857 -6.35253745 -10.40310816
19.42650857 -6.35253745 11.59689184
20.42650857 -6.35253745 12.59689184
19.42650857 -5.35253745 -11.40310816
20.42650857 -5.35253745 -12.40310816
19.42650857 -5.35253745 -10.40310816
19.42650857 -5.35253745 -9.40310816
19.42650857 -5.35253745 11.59689184
20.42650857 -5.35253745 12.59689184
19.42650857 -4.35253745 -11.40310816
20.42650857 -4.35253745 -12.40310816
19.42650857 -4.35253745 -10.40310816
19.42650857 -4.35253745 -9.40310816
19.42650857 -4.35253745 11.59689184
20.42650857 -4.35253745 12.59689184
20.42650857 -3.35253745 -11.40310816
19.42650857 -3.35253745 -10.40310816
20.42650857 -3.35253745 -11.40310816
19.42650857 -3.35253745 -9.40310816
20.42650857 -3.35253745 11.59689184
20.42650857 -3.35253745 11.59689184
19.42650857 -2.35253745 -10.40310816
20.42650857 -2.35253745 -11.40310816
19.42650857 -2.35253745 -9.40310816
19.42650857 -2.35253745 -8.40310816
19.42650857 -2.35253745 10.59689184
20.42650857 -2.35253745 11.59689184
20.42650857 -1.35253745 -10.40310816
19.42650857 -1.35253745 -9.40310816
20.42650857 -1.35253745 -10.40310816
19.42650857 -1.35253745 -8.40310816
19.42650857 -1.35253745 -7.40310816
19.42650857 -1.35253745 10.59689184
20.42650857 -1.35253745 11.59689184
20.42650857 -0.35253745 -9.40310816
19.42650857 -0.35253745 -8.40310816
20.42650857 -0.35253745 -9.40310816
19.42650857 -0.35253745 -7.40310816
19.42650857 -0.35253745 -6.40310816
19.42650857 -0.35253745 9.59689184
20.42650857 -0.35253745 10.59689184
20.42650857 -0.35253745 10.59689184
20.42650857 0.64746255 -8.40310816
20.42650857 0.64746255 -7.40310816
19.42650857 0.64746255 -6.40310816
20.42650857 0.64746255 -7.40310816
19.42650857 0.64746255 -5.40310816
19.42650857 0.64746255 -4.40310816
19.42650857 0.64746255 8.59689184
20.42650857 0.64746255 9.59689184
20.42650857 0.64746255 9.59689184
20.42650857 1.64746255 -6.40310816
20.42650857 1.64746255 -5.40310816
19.42650857 1.64746255 -4.40310816
20.42650857 1.64746255 -5.40310816
19.42650857 1.64746255 -3.40310816
19.42650857 1.64746255 7.59689184
19.42650857 1.64746255 8.59689184
20.42650857 1.64746255 9.59689184
20.42650857 2.64746255 -4.40310816
19.42650857 2.64746255 -3.40310816
20.42650857 2.64746255 -4.40310816
19.42650857 2.64746255 -2.40310816
19.42650857 2.64746255 -1.40310816
19.42650857 2.64746255 6.59689184
19.42650857 2.64746255 7.59689184
20.42650857 2.64746255 8.59689184
20.42650857 2.64746255 8.59689184
20.42650857 3.64746255 -3.40310816
19.42650857 3.64746255 -2.40310816
20.42650857 3.64746255 -3.40310816
19.42650857 3.64746255 -1.40310816
19.42650857 3.64746255 -0.40310816
19.42650857 3.64746255 0.59689184
19.42650857 3.64746255 4.59689184
19.42650857 3.64746255 5.59689184
19.42650857 3.64746255 6.59689184
19.42650857 3.64746255 7.59689184
20.42650857 3.64746255 8.59689184
20.42650857 4.64746255 -2.40310816
20.42650857 4.64746255 -1.40310816
19.42650857 4.64746255 -0.40310816
20.42650857 4.64746255 -1.40310816
19.42650857 4.64746255 0.59689184
19.42650857 4.64746255 1.59689184
19.42650857 4.64746255 2.59689184
19.42650857 4.64746255 3.59689184
19.42650857 4.64746255 4.59689184
19.42650857 4.64746255 5.59689184
19.42650857 4.64746255 6.59689184
19.42650857 4.64746255 7.59689184
20.42650857 4.64746255 8.59689184
20.42650857 5.64746255 -0.40310816
19.42650857 5.64746255 0.59689184
20.42650857 5.64746255 -0.40310816
19.42650857 5.64746255 1.59689184
19.42650857 5.64746255 2.59689184
19.42650857 5.64746255 3.59689184
19.42650857 5.64746255 4.59689184
20.42650857 5.64746255 5.59689184
20.42650857 5.64746255 5.59689184
20.42650857 5.64746255 6.59689184
20.42650857 5.64746255 7.59689184
20.42650857 6.64746255 0.59689184
20.42650857 6.64746255 1.59689184
20.42650857 6.64746255 2.59689184
20.42650857 6.64746255 3.59689184
20.42650857 6.64746255 4.59689184
20.42650857 -43.35253745 20.59689184
21.42650857 -44.35253745 20.59689184
21.42650857 -43.35253745 19.59689184
20.42650857 -43.35253745 21.59689184
21.42650857 -44.35253745 21.59689184
20.42650857 -43.35253745 22.59689184
21.42650857 -44.35253745 22.59689184
20.42650857 -43.35253745 23.59689184
21.42650857 -44.35253745 23.59689184
20.42650857 -43.35253745 24.59689184
21.42650857 -44.35253745 24.59689184
21.42650857 -43.35253745 25.59689184
20.42650857 -42.35253745 18.59689184
21.42650857 -43.35253745 18.59689184
21.42650857 -42.35253745 17.59689184
20.42650857 -42.35253745 19.59689184
21.42650857 -43.35253745 19.59689184
20.42650857 -42.35253745 20.59689184
20.42650857 -42.35253745 21.59689184
20.42650857 -42.35253745 22.59689184
20.42650857 -42.35253745 23.59689184
20.42650857 -42.35253745 24.59689184
20.42650857 -42.35253745 25.59689184
21.42650857 -43.35253745 25.59689184
20.42650857 -42.35253745 26.59689184
21.42650857 -43.35253745 26.59689184
21.42650857 -42.35253745 27.59689184
20.42650857 -41.35253745 17.59689184
21.42650857 -42.35253745 17.59689184
21.42650857 -41.35253745 16.59689184
20.42650857 -41.35253745 18.59689184
20.42650857 -41.35253745 19.59689184
21.42650857 -42.35253745 27.59689184
20.42650857 -41.35253745 28.59689184
21.42650857 -42.35253745 28.59689184
21.42650857 -41.35253745 29.59689184
20.42650857 -40.35253745 -11.40310816
21.42650857 -41.35253745 -11.40310816
21.42650857 -40.35253745 -12.40310816
20.42650857 -40.35253745 -10.40310816
21.42650857 -41.35253745 -10.40310816
20.42650857 -40.35253745 -9.40310816
21.42650857 -41.35253745 -9.40310816
20.42650857 -40.35253745 -8.40310816
21.42650857 -41.35253745 -8.40310816
20.42650857 -40.35253745 -7.40310816
21.42650857 -41.35253745 -7.40310816
20.42650857 -40.35253745 -6.40310816
21.42650857 -41.35253745 -6.40310816
20.42650857 -40.35253745 -5.40310816
21.42650857 -41.35253745 -5.40310816
21.42650857 -40.35253745 -4.40310816
20.42650857 -40.35253745 16.59689184
21.42650857 -41.35253745 16.59689184
21.42650857 -40.35253745 15.59689184
20.42650857 -40.35253745 17.59689184
20.42650857 -40.35253745 18.59689184
21.42650857 -41.35253745 29.59689184
21.42650857 -40.35253745 30.59689184
20.42650857 -39.35253745 -12.40310816
21.42650857 -40.35253745 -12.40310816
21.42650857 -39.35253745 -13.40310816
20.42650857 -39.35253745 -11.40310816
20.42650857 -39.35253745 -10.40310816
20.42650857 -39.35253745 -9.40310816
20.42650857 -39.35253745 -8.40310816
20.42650857 -39.35253745 -7.40310816
20.42650857 -39.35253745 -6.40310816
20.42650857 -39.35253745 -5.40310816
20.42650857 -39.35253745 -4.40310816
21.42650857 -40.35253745 -4.40310816
20.42650857 -39.35253745 -3.40310816
21.42650857 -40.35253745 -3.40310816
20.42650857 -39.35253745 -2.40310816
21.42650857 -40.35253745 -2.40310816
21.42650857 -39.35253745 -1.40310816
20.42650857 -39.35253745 14.59689184
21.42650857 -40.35253745 14.59689184
21.42650857 -39.35253745 13.59689184
20.42650857 -39.35253745 15.59689184
21.42650857 -40.35253745 15.59689184
20.42650857 -39.35253745 16.59689184
20.42650857 -39.35253745 17.59689184
20.42650857 -39.35253745 18.59689184
20.42650857 -39.35253745 26.59689184
20.42650857 -39.35253745 27.59689184
20.42650857 -39.35253745 28.59689184
21.42650857 -39.35253745 29.59689184
21.42650857 -39.35253745 29.59689184
20.42650857 -38.35253745 -13.40310816
21.42650857 -39.35253745 -13.40310816
21.42650857 -38.35253745 -14.40310816
20.42650857 -38.35253745 -12.40310816
20.42650857 -38.35253745 -11.40310816
20.42650857 -38.35253745 -10.40310816
20.42650857 -38.35253745 -9.40310816
20.42650857 -38.35253745 -8.40310816
20.42650857 -38.35253745 -7.40310816
20.42650857 -38.35253745 -6.40310816
20.42650857 -38.35253745 -5.40310816
20.42650857 -38.35253745 -4.40310816
20.42650857 -38.35253745 -3.40310816
20.42650857 -38.35253745 -2.40310816
20.42650857 -38.35253745 -1.40310816
21.42650857 -39.35253745 -1.40310816
20.42650857 -38.35253745 -0.40310816
21.42650857 -39.35253745 -0.40310816
20.42650857 -38.35253745 0.59689184
21.42650857 -39.35253745 0.59689184
20.42650857 -38.35253745 1.59689184
21.42650857 -39.35253745 1.59689184
21.42650857 -38.35253745 2.59689184
20.42650857 -38.35253745 13.59689184
21.42650857 -39.35253745 13.59689184
21.42650857 -38.35253745 12.59689184
20.42650857 -38.35253745 14.59689184
20.42650857 -38.35253745 15.59689184
20.42650857 -38.35253745 16.59689184
20.42650857 -38.35253745 17.59689184
20.42650857 -38.35253745 18.59689184
20.42650857 -38.35253745 23.59689184
20.42650857 -38.35253745 24.59689184
20.42650857 -38.35253745 25.59689184
21.42650857 -38.35253745 26.59689184
21.42650857 -38.35253745 26.59689184
21.42650857 -38.35253745 27.59689184
21.42650857 -38.35253745 28.59689184
20.42650857 -37.35253745 -14.40310816
21.42650857 -38.35253745 -14.40310816
21.42650857 -37.35253745 -15.40310816
20.42650857 -37.35253745 -13.40310816
20.42650857 -37.35253745 -12.40310816
20.42650857 -37.35253745 -11.40310816
20.42650857 -37.35253745 -10.40310816
20.42650857 -37.35253745 -5.40310816
20.42650857 -37.35253745 -4.40310816
20.42650857 -37.35253745 -3.40310816
20.42650857 -37.35253745 -2.40310816
20.42650857 -37.35253745 -1.40310816
20.42650857 -37.35253745 -0.40310816
20.42650857 -37.35253745 0.59689184
20.42650857 -37.35253745 1.59689184
20.42650857 -37.35253745 2.59689184
21.42650857 -38.35253745 2.59689184
20.42650857 -37.35253745 3.59689184
21.42650857 -38.35253745 3.59689184
20.42650857 -37.35253745 4.59689184
21.42650857 -38.35253745 4.59689184
20.42650857 -37.35253745 5.59689184
21.42650857 -38.35253745 5.59689184
20.42650857 -37.35253745 6.59689184
21.42650857 -38.35253745 6.59689184
20.42650857 -37.35253745 7.59689184
21.42650857 -38.35253745 7.59689184
20.42650857 -37.35253745 8.59689184
21.42650857 -38.35253745 8.59689184
20.42650857 -37.35253745 9.59689184
21.42650857 -38.35253745 9.59689184
20.42650857 -37.35253745 10.59689184
21.42650857 -38.35253745 10.59689184
20.42650857 -37.35253745 11.59689184
21.42650857 -38.35253745 11.59689184
20.42650857 -37.35253745 12.59689184
21.42650857 -38.35253745 12.59689184
20.42650857 -37.35253745 13.59689184
20.42650857 -37.35253745 14.59689184
20.42650857 -37.35253745 15.59689184
20.42650857 -37.35253745 16.59689184
20.42650857 -37.35253745 17.59689184
20.42650857 -37.35253745 18.59689184
20.42650857 -37.35253745 19.59689184
20.42650857 -37.35253745 20.59689184
20.42650857 -37.35253745 21.59689184
20.42650857 -37.35253745 22.59689184
20.42650857 -37.35253745 23.59689184
21.42650857 -37.35253745 24.59689184
21.42650857 -37.35253745 24.59689184
21.42650857 -37.35253745 25.59689184
20.42650857 -36.35253745 -14.40310816
21.42650857 -36.35253745 -15.40310816
20.42650857 -36.35253745 -13.40310816
20.42650857 -36.35253745 -12.40310816
20.42650857 -36.35253745 -11.40310816
20.42650857 -36.35253745 -3.40310816
20.42650857 -36.35253745 -2.40310816
20.42650857 -36.35253745 -1.40310816
20.42650857 -36.35253745 -0.40310816
20.42650857 -36.35253745 0.59689184
20.42650857 -36.35253745 1.59689184
20.42650857 -36.35253745 2.59689184
20.42650857 -36.35253745 3.59689184
20.42650857 -36.35253745 4.59689184
20.42650857 -36.35253745 5.59689184
20.42650857 -36.35253745 6.59689184
20.42650857 -36.35253745 7.59689184
20.42650857 -36.35253745 8.59689184
20.42650857 -36.35253745 9.59689184
20.42650857 -36.35253745 10.59689184
20.42650857 -36.35253745 11.59689184
20.42650857 -36.35253745 12.59689184
20.42650857 -36.35253745 13.59689184
20.42650857 -36.35253745 14.59689184
20.42650857 -36.35253745 15.59689184
20.42650857 -36.35253745 16.59689184
20.42650857 -36.35253745 17.59689184
20.42650857 -36.35253745 18.59689184
20.42650857 -36.35253745 19.59689184
20.42650857 -36.35253745 20.59689184
20.42650857 -36.35253745 21.59689184
20.42650857 -36.35253745 22.59689184
21.42650857 -36.35253745 23.59689184
21.42650857 -36.35253745 23.59689184
20.42650857 -35.35253745 -14.40310816
21.42650857 -35.35253745 -15.40310816
20.42650857 -35.35253745 -13.40310816
20.42650857 -35.35253745 -12.40310816
20.42650857 -35.35253745 -11.40310816
20.42650857 -35.35253745 0.59689184
20.42650857 -35.35253745 1.59689184
20.42650857 -35.35253745 2.59689184
20.42650857 -35.35253745 3.59689184
20.42650857 -35.35253745 4.59689184
20.42650857 -35.35253745 5.59689184
20.42650857 -35.35253745 6.59689184
20.42650857 -35.35253745 7.59689184
20.42650857 -35.35253745 8.59689184
20.42650857 -35.35253745 9.59689184
20.42650857 -35.35253745 10.59689184
20.42650857 -35.35253745 11.59689184
20.42650857 -35.35253745 12.59689184
20.42650857 -35.35253745 13.59689184
20.42650857 -35.35253745 14.59689184
20.42650857 -35.35253745 15.59689184
20.42650857 -35.35253745 16.59689184
20.42650857 -35.35253745 17.59689184
20.42650857 -35.35253745 18.59689184
20.42650857 -35.35253745 19.59689184
20.42650857 -35.35253745 20.59689184
20.42650857 -35.35253745 21.59689184
20.42650857 -35.35253745 22.59689184
21.42650857 -35.35253745 23.59689184
20.42650857 -34.35253745 -15.40310816
21.42650857 -35.35253745 -15.40310816
21.42650857 -34.35253745 -16.40310816
20.42650857 -34.35253745 -14.40310816
20.42650857 -34.35253745 -13.40310816
20.42650857 -34.35253745 -12.40310816
20.42650857 -34.35253745 -11.40310816
20.42650857 -34.35253745 8.59689184
20.42650857 -34.35253745 9.59689184
20.42650857 -34.35253745 10.59689184
20.42650857 -34.35253745 11.59689184
20.42650857 -34.35253745 12.59689184
20.42650857 -34.35253745 13.59689184
20.42650857 -34.35253745 14.59689184
20.42650857 -34.35253745 15.59689184
20.42650857 -34.35253745 16.59689184
20.42650857 -34.35253745 17.59689184
20.42650857 -34.35253745 18.59689184
20.42650857 -34.35253745 19.59689184
20.42650857 -34.35253745 20.59689184
20.42650857 -34.35253745 21.59689184
21.42650857 -34.35253745 22.59689184
21.42650857 -34.35253745 22.59689184
20.42650857 -33.35253745 -15.40310816
21.42650857 -33.35253745 -16.40310816
20.42650857 -33.35253745 -14.40310816
20.42650857 -33.35253745 -13.40310816
20.42650857 -33.35253745 -12.40310816
20.42650857 -33.35253745 -11.40310816
20.42650857 -33.35253745 12.59689184
20.42650857 -33.35253745 13.59689184
20.42650857 -33.35253745 14.59689184
20.42650857 -33.35253745 15.59689184
20.42650857 -33.35253745 16.59689184
20.42650857 -33.35253745 17.59689184
20.42650857 -33.35253745 18.59689184
20.42650857 -33.35253745 19.59689184
20.42650857 -33.35253745 20.59689184
21.42650857 -33.35253745 21.59689184
21.42650857 -33.35253745 21.59689184
20.42650857 -32.35253745 -15.40310816
21.42650857 -32.35253745 -16.40310816
20.42650857 -32.35253745 -14.40310816
20.42650857 -32.35253745 -13.40310816
20.42650857 -32.35253745 -12.40310816
20.42650857 -32.35253745 13.59689184
20.42650857 -32.35253745 14.59689184
20.42650857 -32.35253745 15.59689184
20.42650857 -32.35253745 16.59689184
20.42650857 -32.35253745 17.59689184
20.42650857 -32.35253745 18.59689184
20.42650857 -32.35253745 19.59689184
20.42650857 -32.35253745 20.59689184
21.42650857 -32.35253745 21.59689184
20.42650857 -31.35253745 -15.40310816
21.42650857 -31.35253745 -16.40310816
20.42650857 -31.35253745 -14.40310816
20.42650857 -31.35253745 -13.40310816
20.42650857 -31.35253745 -12.40310816
20.42650857 -31.35253745 14.59689184
20.42650857 -31.35253745 15.59689184
20.42650857 -31.35253745 16.59689184
20.42650857 -31.35253745 17.59689184
20.42650857 -31.35253745 18.59689184
20.42650857 -31.35253745 19.59689184
21.42650857 -31.35253745 20.59689184
21.42650857 -31.35253745 20.59689184
20.42650857 -30.35253745 -15.40310816
21.42650857 -30.35253745 -16.40310816
20.42650857 -30.35253745 -14.40310816
20.42650857 -30.35253745 -13.40310816
20.42650857 -30.35253745 -12.40310816
20.42650857 -30.35253745 14.59689184
20.42650857 -30.35253745 15.59689184
20.42650857 -30.35253745 16.59689184
20.42650857 -30.35253745 17.59689184
20.42650857 -30.35253745 18.59689184
20.42650857 -30.35253745 19.59689184
21.42650857 -30.35253745 20.59689184
20.42650857 -29.35253745 -15.40310816
21.42650857 -29.35253745 -16.40310816
20.42650857 -29.35253745 -14.40310816
20.42650857 -29.35253745 -13.40310816
20.42650857 -29.35253745 -12.40310816
20.42650857 -29.35253745 15.59689184
20.42650857 -29.35253745 16.59689184
20.42650857 -29.35253745 17.59689184
