# .PCD v0.7 - Point Cloud Data file format
VERSION 0.7
FIELDS x y z
SIZE 4 4 4
TYPE F F F
COUNT 1 1 1
WIDTH 1283
HEIGHT 1
VIEWPOINT 0 0 0 1 0 0 0
POINTS 1283
DATA ascii
-7.57349143 3.64746255 -16.40310816
-7.57349143 3.64746255 -85.40310816
-7.57349143 4.64746255 -86.40310816
-8.57349143 4.64746255 -20.40310816
-8.57349143 4.64746255 -19.40310816
-8.57349143 4.64746255 -18.40310816
-8.57349143 4.64746255 -17.40310816
-7.57349143 4.64746255 -16.40310816
-7.57349143 5.64746255 -86.40310816
-8.57349143 5.64746255 -19.40310816
-8.57349143 5.64746255 -18.40310816
-8.57349143 5.64746255 -17.40310816
-8.57349143 5.64746255 -16.40310816
-7.57349143 4.64746255 -16.40310816
-7.57349143 5.64746255 -15.40310816
-7.57349143 6.64746255 -86.40310816
-8.57349143 6.64746255 -18.40310816
-8.57349143 6.64746255 -17.40310816
-8.57349143 6.64746255 -16.40310816
-8.57349143 6.64746255 -15.40310816
-7.57349143 5.64746255 -15.40310816
-7.57349143 6.64746255 -14.40310816
-7.57349143 7.64746255 -86.40310816
-8.57349143 7.64746255 -17.40310816
-8.57349143 7.64746255 -16.40310816
-8.57349143 7.64746255 -15.40310816
-7.57349143 7.64746255 -14.40310816
-7.57349143 8.64746255 -86.40310816
-8.57349143 8.64746255 -17.40310816
-8.57349143 8.64746255 -16.40310816
-8.57349143 8.64746255 -15.40310816
-7.57349143 8.64746255 -14.40310816
-7.57349143 9.64746255 -86.40310816
-8.57349143 9.64746255 -17.40310816
-8.57349143 9.64746255 -16.40310816
-7.57349143 9.64746255 -15.40310816
-7.57349143 9.64746255 -15.40310816
-7.57349143 10.64746255 -86.40310816
-8.57349143 10.64746255 -17.40310816
-8.57349143 10.64746255 -16.40310816
-7.57349143 10.64746255 -15.40310816
-7.57349143 11.64746255 -86.40310816
-8.57349143 11.64746255 -18.40310816
-8.57349143 11.64746255 -17.40310816
-8.57349143 11.64746255 -16.40310816
-7.57349143 11.64746255 -15.40310816
-7.57349143 12.64746255 -86.40310816
-8.57349143 12.64746255 -18.40310816
-8.57349143 12.64746255 -17.40310816
-7.57349143 12.64746255 -16.40310816
-7.57349143 12.64746255 -16.40310816
-7.57349143 13.64746255 -86.40310816
-8.57349143 13.64746255 -18.40310816
-8.57349143 13.64746255 -17.40310816
-7.57349143 13.64746255 -16.40310816
-7.57349143 14.64746255 -86.40310816
-8.57349143 14.64746255 -18.40310816
-8.57349143 14.64746255 -17.40310816
-7.57349143 14.64746255 -16.40310816
-8.57349143 15.64746255 -85.40310816
-7.57349143 15.64746255 -86.40310816
-8.57349143 15.64746255 -19.40310816
-8.57349143 15.64746255 -18.40310816
-7.57349143 15.64746255 -17.40310816
-7.57349143 15.64746255 -17.40310816
-7.57349143 16.64746255 -85.40310816
-7.57349143 16.64746255 -85.40310816
-8.57349143 16.64746255 -19.40310816
-8.57349143 16.64746255 -18.40310816
-7.57349143 16.64746255 -17.40310816
-7.57349143 17.64746255 -85.40310816
-8.57349143 17.64746255 -19.40310816
-8.57349143 17.64746255 -18.40310816
-7.57349143 17.64746255 -17.40310816
-7.57349143 18.64746255 -85.40310816
-8.57349143 18.64746255 -20.40310816
-8.57349143 18.64746255 -19.40310816
-7.57349143 18.64746255 -18.40310816
-7.57349143 18.64746255 -18.40310816
-7.57349143 19.64746255 -85.40310816
-8.57349143 19.64746255 -20.40310816
-8.57349143 19.64746255 -19.40310816
-7.57349143 19.64746255 -18.40310816
-7.57349143 20.64746255 -85.40310816
-8.57349143 20.64746255 -20.40310816
-8.57349143 20.64746255 -19.40310816
-7.57349143 20.64746255 -18.40310816
-7.57349143 21.64746255 -85.40310816
-8.57349143 21.64746255 -20.40310816
-7.57349143 21.64746255 -19.40310816
-7.57349143 21.64746255 -19.40310816
-7.57349143 22.64746255 -84.40310816
-7.57349143 22.64746255 -84.40310816
-8.57349143 22.64746255 -20.40310816
-7.57349143 22.64746255 -19.40310816
-7.57349143 23.64746255 -84.40310816
-8.57349143 23.64746255 -20.40310816
-7.57349143 23.64746255 -19.40310816
-7.57349143 24.64746255 -84.40310816
-8.57349143 24.64746255 -20.40310816
-7.57349143 24.64746255 -19.40310816
-7.57349143 25.64746255 -83.40310816
-7.57349143 25.64746255 -83.40310816
-8.57349143 25.64746255 -20.40310816
-7.57349143 25.64746255 -19.40310816
-7.57349143 26.64746255 -83.40310816
-8.57349143 26.64746255 -20.40310816
-7.57349143 26.64746255 -19.40310816
-7.57349143 27.64746255 -83.40310816
-8.57349143 27.64746255 -20.40310816
-7.57349143 27.64746255 -19.40310816
-7.57349143 28.64746255 -83.40310816
-8.57349143 28.64746255 -21.40310816
-7.57349143 28.64746255 -20.40310816
-7.57349143 28.64746255 -20.40310816
-7.57349143 29.64746255 -82.40310816
-7.57349143 29.64746255 -82.40310816
-8.57349143 29.64746255 -22.40310816
-7.57349143 29.64746255 -21.40310816
-7.57349143 29.64746255 -21.40310816
-7.57349143 30.64746255 -82.40310816
-8.57349143 30.64746255 -23.40310816
-7.57349143 30.64746255 -22.40310816
-7.57349143 30.64746255 -22.40310816
-7.57349143 31.64746255 -82.40310816
-8.57349143 31.64746255 -24.40310816
-8.57349143 31.64746255 -23.40310816
-7.57349143 31.64746255 -22.40310816
-7.57349143 32.64746255 -81.40310816
-7.57349143 32.64746255 -81.40310816
-8.57349143 32.64746255 -24.40310816
-7.57349143 32.64746255 -23.40310816
-7.57349143 32.64746255 -23.40310816
-7.57349143 33.64746255 -81.40310816
-8.57349143 33.64746255 -24.40310816
-7.57349143 33.64746255 -23.40310816
-7.57349143 34.64746255 -81.40310816
-8.57349143 34.64746255 -24.40310816
-7.57349143 34.64746255 -23.40310816
-7.57349143 35.64746255 -80.40310816
-7.57349143 35.64746255 -80.40310816
-8.57349143 35.64746255 -24.40310816
-7.57349143 35.64746255 -23.40310816
-7.57349143 36.64746255 -80.40310816
-8.57349143 36.64746255 -25.40310816
-8.57349143 36.64746255 -24.40310816
-7.57349143 36.64746255 -23.40310816
-7.57349143 37.64746255 -79.40310816
-7.57349143 37.64746255 -79.40310816
-8.57349143 37.64746255 -25.40310816
-7.57349143 37.64746255 -24.40310816
-7.57349143 37.64746255 -24.40310816
-7.57349143 38.64746255 -79.40310816
-8.57349143 38.64746255 -26.40310816
-7.57349143 38.64746255 -25.40310816
-7.57349143 38.64746255 -25.40310816
-7.57349143 39.64746255 -78.40310816
-7.57349143 39.64746255 -78.40310816
-8.57349143 39.64746255 -26.40310816
-7.57349143 39.64746255 -25.40310816
-7.57349143 40.64746255 -78.40310816
-8.57349143 40.64746255 -27.40310816
-7.57349143 40.64746255 -26.40310816
-7.57349143 40.64746255 -26.40310816
-8.57349143 41.64746255 -77.40310816
-7.57349143 41.64746255 -78.40310816
-8.57349143 41.64746255 -27.40310816
-7.57349143 41.64746255 -26.40310816
-7.57349143 42.64746255 -77.40310816
-7.57349143 42.64746255 -77.40310816
-8.57349143 42.64746255 -28.40310816
-7.57349143 42.64746255 -27.40310816
-7.57349143 42.64746255 -27.40310816
-7.57349143 43.64746255 -76.40310816
-7.57349143 43.64746255 -76.40310816
-8.57349143 43.64746255 -28.40310816
-7.57349143 43.64746255 -27.40310816
-7.57349143 44.64746255 -76.40310816
-8.57349143 44.64746255 -29.40310816
-7.57349143 44.64746255 -28.40310816
-7.57349143 44.64746255 -28.40310816
-7.57349143 45.64746255 -75.40310816
-7.57349143 45.64746255 -75.40310816
-8.57349143 45.64746255 -31.40310816
-7.57349143 45.64746255 -30.40310816
-7.57349143 45.64746255 -30.40310816
-7.57349143 45.64746255 -29.40310816
-7.57349143 46.64746255 -75.40310816
-7.57349143 46.64746255 -32.40310816
-7.57349143 46.64746255 -32.40310816
-7.57349143 46.64746255 -31.40310816
-7.57349143 47.64746255 -74.40310816
-7.57349143 47.64746255 -74.40310816
-8.57349143 47.64746255 -34.40310816
-7.57349143 47.64746255 -33.40310816
-7.57349143 47.64746255 -33.40310816
-7.57349143 48.64746255 -74.40310816
-8.57349143 48.64746255 -35.40310816
-7.57349143 48.64746255 -34.40310816
-7.57349143 48.64746255 -34.40310816
-7.57349143 49.64746255 -73.40310816
-7.57349143 49.64746255 -73.40310816
-8.57349143 49.64746255 -36.40310816
-7.57349143 49.64746255 -35.40310816
-7.57349143 49.64746255 -35.40310816
-7.57349143 50.64746255 -73.40310816
-7.57349143 50.64746255 -36.40310816
-7.57349143 50.64746255 -36.40310816
-7.57349143 51.64746255 -72.40310816
-7.57349143 51.64746255 -72.40310816
-7.57349143 51.64746255 -37.40310816
-7.57349143 51.64746255 -37.40310816
-7.57349143 52.64746255 -71.40310816
-7.57349143 52.64746255 -71.40310816
-7.57349143 52.64746255 -71.40310816
-7.57349143 52.64746255 -38.40310816
-7.57349143 52.64746255 -38.40310816
-7.57349143 53.64746255 -71.40310816
-7.57349143 53.64746255 -39.40310816
-7.57349143 53.64746255 -39.40310816
-7.57349143 54.64746255 -70.40310816
-7.57349143 54.64746255 -70.40310816
-7.57349143 54.64746255 -41.40310816
-7.57349143 54.64746255 -41.40310816
-7.57349143 54.64746255 -40.40310816
-7.57349143 55.64746255 -69.40310816
-7.57349143 55.64746255 -69.40310816
-7.57349143 55.64746255 -42.40310816
-7.57349143 55.64746255 -42.40310816
-7.57349143 56.64746255 -68.40310816
-7.57349143 56.64746255 -67.40310816
-7.57349143 56.64746255 -67.40310816
-7.57349143 56.64746255 -66.40310816
-7.57349143 56.64746255 -66.40310816
-7.57349143 56.64746255 -66.40310816
-8.57349143 56.64746255 -44.40310816
-7.57349143 56.64746255 -43.40310816
-7.57349143 56.64746255 -43.40310816
-7.57349143 57.64746255 -65.40310816
-7.57349143 57.64746255 -64.40310816
-7.57349143 57.64746255 -64.40310816
-7.57349143 57.64746255 -64.40310816
-7.57349143 57.64746255 -44.40310816
-7.57349143 57.64746255 -44.40310816
-7.57349143 58.64746255 -63.40310816
-7.57349143 58.64746255 -62.40310816
-7.57349143 58.64746255 -62.40310816
-7.57349143 58.64746255 -62.40310816
-7.57349143 58.64746255 -48.40310816
-7.57349143 58.64746255 -48.40310816
-7.57349143 58.64746255 -47.40310816
-7.57349143 58.64746255 -46.40310816
-7.57349143 58.64746255 -45.40310816
-7.57349143 59.64746255 -61.40310816
-7.57349143 59.64746255 -60.40310816
-7.57349143 59.64746255 -60.40310816
-7.57349143 59.64746255 -60.40310816
-7.57349143 59.64746255 -49.40310816
-7.57349143 59.64746255 -49.40310816
-7.57349143 60.64746255 -59.40310816
-7.57349143 60.64746255 -58.40310816
-7.57349143 60.64746255 -57.40310816
-7.57349143 60.64746255 -57.40310816
-7.57349143 60.64746255 -56.40310816
-7.57349143 60.64746255 -56.40310816
-7.57349143 60.64746255 -56.40310816
-7.57349143 60.64746255 -51.40310816
-7.57349143 60.64746255 -51.40310816
-7.57349143 60.64746255 -50.40310816
-7.57349143 61.64746255 -55.40310816
-7.57349143 61.64746255 -54.40310816
-7.57349143 61.64746255 -53.40310816
-7.57349143 61.64746255 -52.40310816
-7.57349143 -26.35253745 -57.40310816
-6.57349143 -27.35253745 -57.40310816
-6.57349143 -26.35253745 -58.40310816
-6.57349143 -26.35253745 -56.40310816
-7.57349143 -25.35253745 -60.40310816
-6.57349143 -26.35253745 -60.40310816
-6.57349143 -25.35253745 -61.40310816
-6.57349143 -25.35253745 -59.40310816
-6.57349143 -25.35253745 -58.40310816
-6.57349143 -25.35253745 -56.40310816
-7.57349143 -25.35253745 -49.40310816
-6.57349143 -26.35253745 -49.40310816
-6.57349143 -25.35253745 -50.40310816
-6.57349143 -25.35253745 -48.40310816
-7.57349143 -24.35253745 -61.40310816
-6.57349143 -25.35253745 -61.40310816
-6.57349143 -24.35253745 -62.40310816
-7.57349143 -24.35253745 -59.40310816
-6.57349143 -25.35253745 -59.40310816
-7.57349143 -24.35253745 -58.40310816
-6.57349143 -25.35253745 -58.40310816
-6.57349143 -24.35253745 -56.40310816
-6.57349143 -24.35253745 -50.40310816
-6.57349143 -24.35253745 -48.40310816
-7.57349143 -23.35253745 -65.40310816
-6.57349143 -24.35253745 -65.40310816
-6.57349143 -23.35253745 -66.40310816
-7.57349143 -23.35253745 -64.40310816
-6.57349143 -24.35253745 -64.40310816
-7.57349143 -23.35253745 -63.40310816
-6.57349143 -24.35253745 -63.40310816
-7.57349143 -23.35253745 -62.40310816
-6.57349143 -24.35253745 -62.40310816
-6.57349143 -23.35253745 -56.40310816
-7.57349143 -23.35253745 -50.40310816
-6.57349143 -24.35253745 -50.40310816
-6.57349143 -23.35253745 -51.40310816
-7.57349143 -23.35253745 -48.40310816
-6.57349143 -24.35253745 -48.40310816
-6.57349143 -23.35253745 -47.40310816
-7.57349143 -22.35253745 -68.40310816
-6.57349143 -23.35253745 -68.40310816
-6.57349143 -22.35253745 -69.40310816
-7.57349143 -22.35253745 -67.40310816
-6.57349143 -23.35253745 -67.40310816
-7.57349143 -22.35253745 -66.40310816
-6.57349143 -23.35253745 -66.40310816
-6.57349143 -22.35253745 -56.40310816
-7.57349143 -22.35253745 -50.40310816
-6.57349143 -22.35253745 -51.40310816
-7.57349143 -22.35253745 -48.40310816
-6.57349143 -22.35253745 -47.40310816
-7.57349143 -21.35253745 -70.40310816
-6.57349143 -22.35253745 -70.40310816
-6.57349143 -21.35253745 -71.40310816
-7.57349143 -21.35253745 -69.40310816
-6.57349143 -22.35253745 -69.40310816
-7.57349143 -21.35253745 -56.40310816
-6.57349143 -22.35253745 -56.40310816
-6.57349143 -21.35253745 -55.40310816
-7.57349143 -21.35253745 -51.40310816
-6.57349143 -22.35253745 -51.40310816
-6.57349143 -21.35253745 -52.40310816
-7.57349143 -21.35253745 -50.40310816
-7.57349143 -21.35253745 -49.40310816
-7.57349143 -21.35253745 -48.40310816
-7.57349143 -21.35253745 -47.40310816
-6.57349143 -22.35253745 -47.40310816
-6.57349143 -21.35253745 -46.40310816
-7.57349143 -20.35253745 -71.40310816
-6.57349143 -21.35253745 -71.40310816
-6.57349143 -20.35253745 -72.40310816
-7.57349143 -20.35253745 -55.40310816
-6.57349143 -21.35253745 -55.40310816
-6.57349143 -20.35253745 -54.40310816
-7.57349143 -20.35253745 -53.40310816
-6.57349143 -21.35253745 -53.40310816
-6.57349143 -20.35253745 -54.40310816
-7.57349143 -20.35253745 -52.40310816
-6.57349143 -21.35253745 -52.40310816
-7.57349143 -20.35253745 -51.40310816
-7.57349143 -20.35253745 -48.40310816
-7.57349143 -20.35253745 -47.40310816
-7.57349143 -20.35253745 -46.40310816
-6.57349143 -21.35253745 -46.40310816
-6.57349143 -20.35253745 -45.40310816
-7.57349143 -19.35253745 -73.40310816
-6.57349143 -20.35253745 -73.40310816
-6.57349143 -19.35253745 -74.40310816
-6.57349143 -20.35253745 -72.40310816
-7.57349143 -19.35253745 -55.40310816
-7.57349143 -19.35253745 -54.40310816
-6.57349143 -20.35253745 -54.40310816
-7.57349143 -19.35253745 -53.40310816
-7.57349143 -19.35253745 -52.40310816
-7.57349143 -19.35253745 -47.40310816
-7.57349143 -19.35253745 -46.40310816
-7.57349143 -19.35253745 -45.40310816
-6.57349143 -20.35253745 -45.40310816
-6.57349143 -19.35253745 -44.40310816
-7.57349143 -19.35253745 -32.40310816
-6.57349143 -20.35253745 -32.40310816
-6.57349143 -19.35253745 -33.40310816
-6.57349143 -19.35253745 -31.40310816
-7.57349143 -18.35253745 -74.40310816
-6.57349143 -19.35253745 -74.40310816
-6.57349143 -18.35253745 -75.40310816
-7.57349143 -18.35253745 -46.40310816
-7.57349143 -18.35253745 -45.40310816
-7.57349143 -18.35253745 -44.40310816
-6.57349143 -19.35253745 -44.40310816
-7.57349143 -18.35253745 -43.40310816
-6.57349143 -19.35253745 -43.40310816
-7.57349143 -18.35253745 -42.40310816
-6.57349143 -19.35253745 -42.40310816
-6.57349143 -18.35253745 -41.40310816
-6.57349143 -18.35253745 -32.40310816
-7.57349143 -17.35253745 -75.40310816
-6.57349143 -18.35253745 -75.40310816
-6.57349143 -17.35253745 -76.40310816
-7.57349143 -17.35253745 -44.40310816
-7.57349143 -17.35253745 -43.40310816
-7.57349143 -17.35253745 -42.40310816
-7.57349143 -17.35253745 -41.40310816
-6.57349143 -18.35253745 -41.40310816
-7.57349143 -17.35253745 -40.40310816
-6.57349143 -18.35253745 -40.40310816
-7.57349143 -17.35253745 -39.40310816
-6.57349143 -18.35253745 -39.40310816
-6.57349143 -17.35253745 -38.40310816
-7.57349143 -17.35253745 -24.40310816
-6.57349143 -18.35253745 -24.40310816
-6.57349143 -17.35253745 -25.40310816
-7.57349143 -17.35253745 -23.40310816
-6.57349143 -18.35253745 -23.40310816
-6.57349143 -17.35253745 -22.40310816
-7.57349143 -16.35253745 -76.40310816
-6.57349143 -17.35253745 -76.40310816
-6.57349143 -16.35253745 -77.40310816
-7.57349143 -16.35253745 -41.40310816
-7.57349143 -16.35253745 -40.40310816
-7.57349143 -16.35253745 -39.40310816
-7.57349143 -16.35253745 -38.40310816
-6.57349143 -17.35253745 -38.40310816
-7.57349143 -16.35253745 -37.40310816
-6.57349143 -17.35253745 -37.40310816
-7.57349143 -16.35253745 -36.40310816
-6.57349143 -17.35253745 -36.40310816
-7.57349143 -16.35253745 -35.40310816
-6.57349143 -17.35253745 -35.40310816
-7.57349143 -16.35253745 -34.40310816
-6.57349143 -17.35253745 -34.40310816
-7.57349143 -16.35253745 -33.40310816
-6.57349143 -17.35253745 -33.40310816
-6.57349143 -16.35253745 -32.40310816
-6.57349143 -16.35253745 -24.40310816
-6.57349143 -16.35253745 -23.40310816
-6.57349143 -16.35253745 -77.40310816
-6.57349143 -15.35253745 -78.40310816
-7.57349143 -15.35253745 -38.40310816
-7.57349143 -15.35253745 -37.40310816
-7.57349143 -15.35253745 -36.40310816
-7.57349143 -15.35253745 -35.40310816
-7.57349143 -15.35253745 -34.40310816
-7.57349143 -15.35253745 -33.40310816
-7.57349143 -15.35253745 -32.40310816
-6.57349143 -16.35253745 -32.40310816
-7.57349143 -15.35253745 -31.40310816
-6.57349143 -16.35253745 -31.40310816
-6.57349143 -15.35253745 -30.40310816
-6.57349143 -15.35253745 -78.40310816
-6.57349143 -14.35253745 -79.40310816
-7.57349143 -14.35253745 -34.40310816
-7.57349143 -14.35253745 -33.40310816
-7.57349143 -14.35253745 -32.40310816
-7.57349143 -14.35253745 -31.40310816
-7.57349143 -14.35253745 -30.40310816
-6.57349143 -15.35253745 -30.40310816
-7.57349143 -14.35253745 -29.40310816
-6.57349143 -15.35253745 -29.40310816
-6.57349143 -14.35253745 -28.40310816
-7.57349143 -13.35253745 -80.40310816
-6.57349143 -14.35253745 -80.40310816
-6.57349143 -13.35253745 -81.40310816
-6.57349143 -14.35253745 -79.40310816
-7.57349143 -13.35253745 -31.40310816
-7.57349143 -13.35253745 -30.40310816
-7.57349143 -13.35253745 -29.40310816
-7.57349143 -13.35253745 -28.40310816
-6.57349143 -14.35253745 -28.40310816
-7.57349143 -13.35253745 -27.40310816
-6.57349143 -14.35253745 -27.40310816
-7.57349143 -13.35253745 -26.40310816
-6.57349143 -14.35253745 -26.40310816
-7.57349143 -13.35253745 -25.40310816
-6.57349143 -14.35253745 -25.40310816
-6.57349143 -13.35253745 -24.40310816
-7.57349143 -12.35253745 -81.40310816
-6.57349143 -13.35253745 -81.40310816
-6.57349143 -12.35253745 -82.40310816
-7.57349143 -12.35253745 -28.40310816
-7.57349143 -12.35253745 -27.40310816
-7.57349143 -12.35253745 -26.40310816
-7.57349143 -12.35253745 -25.40310816
-7.57349143 -12.35253745 -24.40310816
-6.57349143 -13.35253745 -24.40310816
-7.57349143 -12.35253745 -23.40310816
-6.57349143 -13.35253745 -23.40310816
-7.57349143 -12.35253745 -22.40310816
-6.57349143 -13.35253745 -22.40310816
-6.57349143 -12.35253745 -21.40310816
-7.57349143 -11.35253745 -82.40310816
-6.57349143 -12.35253745 -82.40310816
-6.57349143 -11.35253745 -83.40310816
-7.57349143 -11.35253745 -24.40310816
-7.57349143 -11.35253745 -23.40310816
-7.57349143 -11.35253745 -22.40310816
-7.57349143 -11.35253745 -21.40310816
-6.57349143 -12.35253745 -21.40310816
-7.57349143 -11.35253745 -20.40310816
-6.57349143 -12.35253745 -20.40310816
-6.57349143 -11.35253745 -19.40310816
-6.57349143 -10.35253745 -83.40310816
-7.57349143 -10.35253745 -21.40310816
-7.57349143 -10.35253745 -20.40310816
-7.57349143 -10.35253745 -19.40310816
-6.57349143 -11.35253745 -19.40310816
-7.57349143 -10.35253745 -18.40310816
-6.57349143 -11.35253745 -18.40310816
-6.57349143 -10.35253745 -17.40310816
-7.57349143 -9.35253745 -83.40310816
-6.57349143 -10.35253745 -83.40310816
-6.57349143 -9.35253745 -84.40310816
-7.57349143 -9.35253745 -19.40310816
-7.57349143 -9.35253745 -18.40310816
-7.57349143 -9.35253745 -17.40310816
-6.57349143 -10.35253745 -17.40310816
-6.57349143 -9.35253745 -16.40310816
-6.57349143 -8.35253745 -84.40310816
-7.57349143 -8.35253745 -19.40310816
-7.57349143 -8.35253745 -18.40310816
-7.57349143 -8.35253745 -17.40310816
-6.57349143 -8.35253745 -16.40310816
-7.57349143 -7.35253745 -84.40310816
-6.57349143 -8.35253745 -84.40310816
-6.57349143 -7.35253745 -85.40310816
-7.57349143 -7.35253745 -18.40310816
-7.57349143 -7.35253745 -17.40310816
-7.57349143 -7.35253745 -16.40310816
-6.57349143 -8.35253745 -16.40310816
-6.57349143 -7.35253745 -15.40310816
-7.57349143 -6.35253745 -84.40310816
-6.57349143 -6.35253745 -85.40310816
-7.57349143 -6.35253745 -18.40310816
-7.57349143 -6.35253745 -17.40310816
-6.57349143 -6.35253745 -16.40310816
-6.57349143 -6.35253745 -16.40310816
-6.57349143 -5.35253745 -85.40310816
-7.57349143 -5.35253745 -19.40310816
-7.57349143 -5.35253745 -18.40310816
-7.57349143 -5.35253745 -17.40310816
-6.57349143 -5.35253745 -16.40310816
-6.57349143 -4.35253745 -85.40310816
-7.57349143 -4.35253745 -19.40310816
-7.57349143 -4.35253745 -18.40310816
-7.57349143 -4.35253745 -17.40310816
-6.57349143 -4.35253745 -16.40310816
-6.57349143 -3.35253745 -85.40310816
-7.57349143 -3.35253745 -19.40310816
-7.57349143 -3.35253745 -18.40310816
-7.57349143 -3.35253745 -17.40310816
-6.57349143 -3.35253745 -16.40310816
-6.57349143 -2.35253745 -85.40310816
-7.57349143 -2.35253745 -19.40310816
-7.57349143 -2.35253745 -18.40310816
-7.57349143 -2.35253745 -17.40310816
-6.57349143 -2.35253745 -16.40310816
-6.57349143 -1.35253745 -85.40310816
-7.57349143 -1.35253745 -19.40310816
-7.57349143 -1.35253745 -18.40310816
-7.57349143 -1.35253745 -17.40310816
-6.57349143 -1.35253745 -16.40310816
-6.57349143 -0.35253745 -85.40310816
-7.57349143 -0.35253745 -19.40310816
-7.57349143 -0.35253745 -18.40310816
-7.57349143 -0.35253745 -17.40310816
-7.57349143 -0.35253745 -16.40310816
-6.57349143 -1.35253745 -16.40310816
-6.57349143 -0.35253745 -15.40310816
-6.57349143 0.64746255 -85.40310816
-7.57349143 0.64746255 -18.40310816
-7.57349143 0.64746255 -17.40310816
-7.57349143 0.64746255 -16.40310816
-6.57349143 0.64746255 -15.40310816
-6.57349143 1.64746255 -85.40310816
-7.57349143 1.64746255 -18.40310816
-7.57349143 1.64746255 -17.40310816
-7.57349143 1.64746255 -16.40310816
-7.57349143 1.64746255 -15.40310816
-6.57349143 0.64746255 -15.40310816
-6.57349143 1.64746255 -14.40310816
-6.57349143 2.64746255 -85.40310816
-7.57349143 2.64746255 -17.40310816
-7.57349143 2.64746255 -16.40310816
-7.57349143 2.64746255 -15.40310816
-6.57349143 2.64746255 -14.40310816
-7.57349143 3.64746255 -85.40310816
-6.57349143 2.64746255 -85.40310816
-6.57349143 3.64746255 -86.40310816
-7.57349143 3.64746255 -16.40310816
-7.57349143 3.64746255 -15.40310816
-7.57349143 3.64746255 -14.40310816
-6.57349143 2.64746255 -14.40310816
-6.57349143 3.64746255 -13.40310816
-6.57349143 4.64746255 -86.40310816
-7.57349143 4.64746255 -16.40310816
-7.57349143 4.64746255 -15.40310816
-7.57349143 4.64746255 -14.40310816
-6.57349143 4.64746255 -13.40310816
-6.57349143 5.64746255 -86.40310816
-7.57349143 5.64746255 -15.40310816
-7.57349143 5.64746255 -14.40310816
-7.57349143 5.64746255 -13.40310816
-6.57349143 4.64746255 -13.40310816
-6.57349143 5.64746255 -12.40310816
-6.57349143 6.64746255 -86.40310816
-7.57349143 6.64746255 -14.40310816
-7.57349143 6.64746255 -13.40310816
-6.57349143 6.64746255 -12.40310816
-6.57349143 7.64746255 -86.40310816
-7.57349143 7.64746255 -14.40310816
-7.57349143 7.64746255 -13.40310816
-6.57349143 7.64746255 -12.40310816
-6.57349143 8.64746255 -86.40310816
-7.57349143 8.64746255 -14.40310816
-7.57349143 8.64746255 -13.40310816
-6.57349143 8.64746255 -12.40310816
-6.57349143 9.64746255 -86.40310816
-7.57349143 9.64746255 -15.40310816
-7.57349143 9.64746255 -14.40310816
-7.57349143 9.64746255 -13.40310816
-6.57349143 9.64746255 -12.40310816
-6.57349143 10.64746255 -86.40310816
-7.57349143 10.64746255 -15.40310816
-7.57349143 10.64746255 -14.40310816
-6.57349143 10.64746255 -13.40310816
-6.57349143 10.64746255 -13.40310816
-6.57349143 11.64746255 -86.40310816
-7.57349143 11.64746255 -15.40310816
-7.57349143 11.64746255 -14.40310816
-6.57349143 11.64746255 -13.40310816
-6.57349143 12.64746255 -86.40310816
-7.57349143 12.64746255 -16.40310816
-7.57349143 12.64746255 -15.40310816
-7.57349143 12.64746255 -14.40310816
-6.57349143 12.64746255 -13.40310816
-6.57349143 13.64746255 -86.40310816
-7.57349143 13.64746255 -16.40310816
-7.57349143 13.64746255 -15.40310816
-6.57349143 13.64746255 -14.40310816
-6.57349143 13.64746255 -14.40310816
-6.57349143 14.64746255 -86.40310816
-7.57349143 14.64746255 -16.40310816
-7.57349143 14.64746255 -15.40310816
-6.57349143 14.64746255 -14.40310816
-6.57349143 15.64746255 -86.40310816
-7.57349143 15.64746255 -17.40310816
-7.57349143 15.64746255 -16.40310816
-6.57349143 15.64746255 -15.40310816
-6.57349143 15.64746255 -15.40310816
-6.57349143 16.64746255 -85.40310816
-6.57349143 16.64746255 -85.40310816
-7.57349143 16.64746255 -17.40310816
-7.57349143 16.64746255 -16.40310816
-6.57349143 16.64746255 -15.40310816
-6.57349143 17.64746255 -85.40310816
-7.57349143 17.64746255 -17.40310816
-7.57349143 17.64746255 -16.40310816
-6.57349143 17.64746255 -15.40310816
-6.57349143 18.64746255 -85.40310816
-7.57349143 18.64746255 -18.40310816
-7.57349143 18.64746255 -17.40310816
-6.57349143 18.64746255 -16.40310816
-6.57349143 18.64746255 -16.40310816
-6.57349143 19.64746255 -85.40310816
-7.57349143 19.64746255 -18.40310816
-7.57349143 19.64746255 -17.40310816
-6.57349143 19.64746255 -16.40310816
-6.57349143 20.64746255 -85.40310816
-7.57349143 20.64746255 -18.40310816
-6.57349143 20.64746255 -17.40310816
-6.57349143 20.64746255 -17.40310816
-6.57349143 21.64746255 -85.40310816
-7.57349143 21.64746255 -19.40310816
-7.57349143 21.64746255 -18.40310816
-6.57349143 21.64746255 -17.40310816
-6.57349143 22.64746255 -84.40310816
-6.57349143 22.64746255 -84.40310816
-7.57349143 22.64746255 -19.40310816
-7.57349143 22.64746255 -18.40310816
-6.57349143 22.64746255 -17.40310816
-6.57349143 23.64746255 -84.40310816
-7.57349143 23.64746255 -19.40310816
-7.57349143 23.64746255 -18.40310816
-6.57349143 23.64746255 -17.40310816
-6.57349143 24.64746255 -84.40310816
-7.57349143 24.64746255 -19.40310816
-6.57349143 24.64746255 -18.40310816
-6.57349143 24.64746255 -18.40310816
-6.57349143 25.64746255 -83.40310816
-6.57349143 25.64746255 -83.40310816
-7.57349143 25.64746255 -19.40310816
-6.57349143 25.64746255 -18.40310816
-6.57349143 26.64746255 -83.40310816
-7.57349143 26.64746255 -19.40310816
-6.57349143 26.64746255 -18.40310816
-6.57349143 27.64746255 -83.40310816
-7.57349143 27.64746255 -19.40310816
-6.57349143 27.64746255 -18.40310816
-6.57349143 28.64746255 -83.40310816
-7.57349143 28.64746255 -20.40310816
-6.57349143 28.64746255 -19.40310816
-6.57349143 28.64746255 -19.40310816
-6.57349143 29.64746255 -82.40310816
-6.57349143 29.64746255 -82.40310816
-7.57349143 29.64746255 -21.40310816
-6.57349143 29.64746255 -20.40310816
-6.57349143 29.64746255 -20.40310816
-6.57349143 30.64746255 -82.40310816
-7.57349143 30.64746255 -22.40310816
-7.57349143 30.64746255 -21.40310816
-6.57349143 30.64746255 -20.40310816
-6.57349143 31.64746255 -82.40310816
-7.57349143 31.64746255 -22.40310816
-6.57349143 31.64746255 -21.40310816
-6.57349143 31.64746255 -21.40310816
-7.57349143 32.64746255 -81.40310816
-6.57349143 32.64746255 -82.40310816
-7.57349143 32.64746255 -23.40310816
-7.57349143 32.64746255 -22.40310816
-6.57349143 32.64746255 -21.40310816
-6.57349143 33.64746255 -81.40310816
-6.57349143 33.64746255 -81.40310816
-7.57349143 33.64746255 -23.40310816
-6.57349143 33.64746255 -22.40310816
-6.57349143 33.64746255 -22.40310816
-6.57349143 34.64746255 -81.40310816
-7.57349143 34.64746255 -23.40310816
-6.57349143 34.64746255 -22.40310816
-6.57349143 35.64746255 -80.40310816
-6.57349143 35.64746255 -80.40310816
-7.57349143 35.64746255 -23.40310816
-6.57349143 35.64746255 -22.40310816
-6.57349143 36.64746255 -80.40310816
-7.57349143 36.64746255 -23.40310816
-6.57349143 36.64746255 -22.40310816
-6.57349143 37.64746255 -79.40310816
-6.57349143 37.64746255 -79.40310816
-7.57349143 37.64746255 -24.40310816
-6.57349143 37.64746255 -23.40310816
-6.57349143 37.64746255 -23.40310816
-6.57349143 38.64746255 -79.40310816
-7.57349143 38.64746255 -25.40310816
-7.57349143 38.64746255 -24.40310816
-6.57349143 38.64746255 -23.40310816
-6.57349143 39.64746255 -78.40310816
-6.57349143 39.64746255 -78.40310816
-7.57349143 39.64746255 -25.40310816
-6.57349143 39.64746255 -24.40310816
-6.57349143 39.64746255 -24.40310816
-6.57349143 40.64746255 -78.40310816
-7.57349143 40.64746255 -26.40310816
-6.57349143 40.64746255 -25.40310816
-6.57349143 40.64746255 -25.40310816
-6.57349143 41.64746255 -78.40310816
-7.57349143 41.64746255 -26.40310816
-6.57349143 41.64746255 -25.40310816
-6.57349143 42.64746255 -77.40310816
-6.57349143 42.64746255 -77.40310816
-7.57349143 42.64746255 -27.40310816
-6.57349143 42.64746255 -26.40310816
-6.57349143 42.64746255 -26.40310816
-7.57349143 43.64746255 -76.40310816
-6.57349143 43.64746255 -77.40310816
-7.57349143 43.64746255 -27.40310816
-6.57349143 43.64746255 -26.40310816
-6.57349143 44.64746255 -76.40310816
-6.57349143 44.64746255 -76.40310816
-7.57349143 44.64746255 -28.40310816
-6.57349143 44.64746255 -27.40310816
-6.57349143 44.64746255 -27.40310816
-6.57349143 45.64746255 -75.40310816
-6.57349143 45.64746255 -75.40310816
-7.57349143 45.64746255 -30.40310816
-6.57349143 45.64746255 -29.40310816
-6.57349143 45.64746255 -29.40310816
-6.57349143 45.64746255 -28.40310816
-6.57349143 46.64746255 -75.40310816
-7.57349143 46.64746255 -32.40310816
-6.57349143 46.64746255 -31.40310816
-6.57349143 46.64746255 -31.40310816
-6.57349143 46.64746255 -30.40310816
-6.57349143 47.64746255 -74.40310816
-6.57349143 47.64746255 -74.40310816
-6.57349143 47.64746255 -33.40310816
-6.57349143 47.64746255 -33.40310816
-6.57349143 47.64746255 -32.40310816
-6.57349143 48.64746255 -74.40310816
-6.57349143 48.64746255 -34.40310816
-6.57349143 48.64746255 -34.40310816
-6.57349143 49.64746255 -73.40310816
-6.57349143 49.64746255 -73.40310816
-6.57349143 49.64746255 -35.40310816
-6.57349143 49.64746255 -35.40310816
-6.57349143 50.64746255 -73.40310816
-7.57349143 50.64746255 -36.40310816
-6.57349143 50.64746255 -35.40310816
-6.57349143 51.64746255 -72.40310816
-6.57349143 51.64746255 -72.40310816
-7.57349143 51.64746255 -37.40310816
-6.57349143 51.64746255 -36.40310816
-6.57349143 51.64746255 -36.40310816
-6.57349143 52.64746255 -71.40310816
-6.57349143 52.64746255 -71.40310816
-7.57349143 52.64746255 -38.40310816
-6.57349143 52.64746255 -37.40310816
-6.57349143 52.64746255 -37.40310816
-6.57349143 53.64746255 -71.40310816
-6.57349143 53.64746255 -39.40310816
-6.57349143 53.64746255 -39.40310816
-6.57349143 53.64746255 -38.40310816
-6.57349143 54.64746255 -70.40310816
-6.57349143 54.64746255 -70.40310816
-6.57349143 54.64746255 -41.40310816
-6.57349143 54.64746255 -41.40310816
-6.57349143 54.64746255 -40.40310816
-6.57349143 55.64746255 -69.40310816
-6.57349143 55.64746255 -69.40310816
-6.57349143 55.64746255 -42.40310816
-6.57349143 55.64746255 -42.40310816
-6.57349143 56.64746255 -68.40310816
-6.57349143 56.64746255 -67.40310816
-6.57349143 56.64746255 -66.40310816
-6.57349143 56.64746255 -65.40310816
-6.57349143 56.64746255 -65.40310816
-6.57349143 56.64746255 -65.40310816
-6.57349143 56.64746255 -43.40310816
-6.57349143 56.64746255 -43.40310816
-6.57349143 57.64746255 -64.40310816
-6.57349143 57.64746255 -63.40310816
-6.57349143 57.64746255 -63.40310816
-6.57349143 57.64746255 -63.40310816
-6.57349143 57.64746255 -46.40310816
-6.57349143 57.64746255 -46.40310816
-6.57349143 57.64746255 -46.40310816
-6.57349143 57.64746255 -46.40310816
-6.57349143 57.64746255 -44.40310816
-6.57349143 57.64746255 -44.40310816
-6.57349143 58.64746255 -62.40310816
-6.57349143 58.64746255 -61.40310816
-6.57349143 58.64746255 -61.40310816
-6.57349143 58.64746255 -61.40310816
-6.57349143 58.64746255 -48.40310816
-6.57349143 58.64746255 -48.40310816
-6.57349143 58.64746255 -47.40310816
-6.57349143 58.64746255 -45.40310816
-6.57349143 59.64746255 -60.40310816
-6.57349143 59.64746255 -59.40310816
-6.57349143 59.64746255 -59.40310816
-6.57349143 59.64746255 -59.40310816
-6.57349143 59.64746255 -49.40310816
-6.57349143 59.64746255 -49.40310816
-6.57349143 60.64746255 -58.40310816
-6.57349143 60.64746255 -57.40310816
-6.57349143 60.64746255 -56.40310816
-6.57349143 60.64746255 -55.40310816
-6.57349143 60.64746255 -55.40310816
-6.57349143 60.64746255 -54.40310816
-6.57349143 60.64746255 -54.40310816
-6.57349143 60.64746255 -53.40310816
-6.57349143 60.64746255 -53.40310816
-6.57349143 60.64746255 -52.40310816
-6.57349143 60.64746255 -52.40310816
-6.57349143 60.64746255 -51.40310816
-6.57349143 60.64746255 -50.40310816
-6.57349143 -27.35253745 -57.40310816
-5.57349143 -28.35253745 -57.40310816
-5.57349143 -27.35253745 -58.40310816
-5.57349143 -27.35253745 -56.40310816
-5.57349143 -26.35253745 -58.40310816
-5.57349143 -26.35253745 -56.40310816
-6.57349143 -26.35253745 -49.40310816
-5.57349143 -27.35253745 -49.40310816
-5.57349143 -26.35253745 -50.40310816
-5.57349143 -26.35253745 -48.40310816
-6.57349143 -25.35253745 -61.40310816
-5.57349143 -26.35253745 -61.40310816
-5.57349143 -25.35253745 -62.40310816
-5.57349143 -26.35253745 -60.40310816
-6.57349143 -25.35253745 -59.40310816
-5.57349143 -26.35253745 -59.40310816
-6.57349143 -25.35253745 -58.40310816
-5.57349143 -26.35253745 -58.40310816
-5.57349143 -25.35253745 -56.40310816
-5.57349143 -25.35253745 -50.40310816
-5.57349143 -25.35253745 -48.40310816
-6.57349143 -24.35253745 -71.40310816
-5.57349143 -25.35253745 -71.40310816
-5.57349143 -24.35253745 -72.40310816
-5.57349143 -24.35253745 -70.40310816
-6.57349143 -24.35253745 -64.40310816
-5.57349143 -25.35253745 -64.40310816
-5.57349143 -24.35253745 -65.40310816
-6.57349143 -24.35253745 -63.40310816
-5.57349143 -25.35253745 -63.40310816
-6.57349143 -24.35253745 -62.40310816
-5.57349143 -25.35253745 -62.40310816
-5.57349143 -24.35253745 -56.40310816
-6.57349143 -24.35253745 -50.40310816
-5.57349143 -25.35253745 -50.40310816
-5.57349143 -24.35253745 -51.40310816
-6.57349143 -24.35253745 -48.40310816
-5.57349143 -25.35253745 -48.40310816
-5.57349143 -24.35253745 -47.40310816
-6.57349143 -24.35253745 -0.40310816
-5.57349143 -25.35253745 -0.40310816
-5.57349143 -24.35253745 -1.40310816
-6.57349143 -24.35253745 0.59689184
-5.57349143 -25.35253745 0.59689184
-6.57349143 -24.35253745 1.59689184
-5.57349143 -25.35253745 1.59689184
-5.57349143 -24.35253745 2.59689184
-6.57349143 -23.35253745 -71.40310816
-5.57349143 -23.35253745 -72.40310816
-6.57349143 -23.35253745 -70.40310816
-5.57349143 -24.35253745 -70.40310816
-6.57349143 -23.35253745 -69.40310816
-5.57349143 -24.35253745 -69.40310816
-6.57349143 -23.35253745 -68.40310816
-5.57349143 -24.35253745 -68.40310816
-6.57349143 -23.35253745 -67.40310816
-5.57349143 -24.35253745 -67.40310816
-6.57349143 -23.35253745 -66.40310816
-5.57349143 -24.35253745 -66.40310816
-5.57349143 -24.35253745 -65.40310816
-6.57349143 -23.35253745 -56.40310816
-5.57349143 -24.35253745 -56.40310816
-5.57349143 -23.35253745 -55.40310816
-6.57349143 -23.35253745 -51.40310816
-5.57349143 -24.35253745 -51.40310816
-5.57349143 -23.35253745 -52.40310816
-6.57349143 -23.35253745 -47.40310816
-5.57349143 -24.35253745 -47.40310816
-5.57349143 -23.35253745 -46.40310816
-6.57349143 -23.35253745 -43.40310816
-5.57349143 -24.35253745 -43.40310816
-5.57349143 -23.35253745 -44.40310816
-5.57349143 -23.35253745 -42.40310816
-5.57349143 -23.35253745 -0.40310816
-5.57349143 -23.35253745 0.59689184
-5.57349143 -23.35253745 1.59689184
-6.57349143 -22.35253745 -71.40310816
-5.57349143 -22.35253745 -72.40310816
-6.57349143 -22.35253745 -70.40310816
-6.57349143 -22.35253745 -69.40310816
-6.57349143 -22.35253745 -56.40310816
-5.57349143 -22.35253745 -55.40310816
-6.57349143 -22.35253745 -52.40310816
-5.57349143 -23.35253745 -52.40310816
-5.57349143 -22.35253745 -53.40310816
-6.57349143 -22.35253745 -51.40310816
-6.57349143 -22.35253745 -47.40310816
-6.57349143 -22.35253745 -46.40310816
-5.57349143 -23.35253745 -46.40310816
-6.57349143 -22.35253745 -45.40310816
-5.57349143 -23.35253745 -45.40310816
-5.57349143 -22.35253745 -44.40310816
-6.57349143 -22.35253745 -43.40310816
-5.57349143 -22.35253745 -44.40310816
-5.57349143 -22.35253745 -42.40310816
-6.57349143 -21.35253745 -71.40310816
-5.57349143 -21.35253745 -72.40310816
-6.57349143 -21.35253745 -55.40310816
-5.57349143 -22.35253745 -55.40310816
-6.57349143 -21.35253745 -54.40310816
-5.57349143 -22.35253745 -54.40310816
-6.57349143 -21.35253745 -53.40310816
-5.57349143 -22.35253745 -53.40310816
-6.57349143 -21.35253745 -52.40310816
-6.57349143 -21.35253745 -46.40310816
-6.57349143 -21.35253745 -45.40310816
-6.57349143 -21.35253745 -44.40310816
-5.57349143 -22.35253745 -44.40310816
-6.57349143 -21.35253745 -43.40310816
-5.57349143 -21.35253745 -42.40310816
-6.57349143 -21.35253745 -32.40310816
-5.57349143 -22.35253745 -32.40310816
-5.57349143 -21.35253745 -33.40310816
-5.57349143 -21.35253745 -31.40310816
-6.57349143 -20.35253745 -72.40310816
-5.57349143 -21.35253745 -72.40310816
-5.57349143 -20.35253745 -73.40310816
-6.57349143 -20.35253745 -54.40310816
-6.57349143 -20.35253745 -45.40310816
-6.57349143 -20.35253745 -44.40310816
-6.57349143 -20.35253745 -43.40310816
-6.57349143 -20.35253745 -42.40310816
-5.57349143 -21.35253745 -42.40310816
-6.57349143 -20.35253745 -41.40310816
-5.57349143 -21.35253745 -41.40310816
-5.57349143 -20.35253745 -40.40310816
-6.57349143 -20.35253745 -32.40310816
-5.57349143 -20.35253745 -33.40310816
-5.57349143 -20.35253745 -31.40310816
-5.57349143 -20.35253745 -73.40310816
-5.57349143 -19.35253745 -74.40310816
-6.57349143 -19.35253745 -44.40310816
-6.57349143 -19.35253745 -43.40310816
-6.57349143 -19.35253745 -42.40310816
-6.57349143 -19.35253745 -41.40310816
-6.57349143 -19.35253745 -40.40310816
-5.57349143 -20.35253745 -40.40310816
-6.57349143 -19.35253745 -39.40310816
-5.57349143 -20.35253745 -39.40310816
-6.57349143 -19.35253745 -38.40310816
-5.57349143 -20.35253745 -38.40310816
-5.57349143 -19.35253745 -37.40310816
-6.57349143 -19.35253745 -34.40310816
-5.57349143 -20.35253745 -34.40310816
-5.57349143 -19.35253745 -35.40310816
-6.57349143 -19.35253745 -33.40310816
-5.57349143 -20.35253745 -33.40310816
-5.57349143 -19.35253745 -31.40310816
-5.57349143 -19.35253745 -74.40310816
-5.57349143 -18.35253745 -75.40310816
-6.57349143 -18.35253745 -41.40310816
-6.57349143 -18.35253745 -40.40310816
-6.57349143 -18.35253745 -39.40310816
-6.57349143 -18.35253745 -38.40310816
-6.57349143 -18.35253745 -37.40310816
-5.57349143 -19.35253745 -37.40310816
-6.57349143 -18.35253745 -36.40310816
-5.57349143 -19.35253745 -36.40310816
-6.57349143 -18.35253745 -35.40310816
-5.57349143 -19.35253745 -35.40310816
-6.57349143 -18.35253745 -34.40310816
-6.57349143 -18.35253745 -33.40310816
-6.57349143 -18.35253745 -32.40310816
-6.57349143 -18.35253745 -31.40310816
-5.57349143 -19.35253745 -31.40310816
-5.57349143 -18.35253745 -30.40310816
-5.57349143 -18.35253745 -75.40310816
-5.57349143 -17.35253745 -76.40310816
-6.57349143 -17.35253745 -38.40310816
-6.57349143 -17.35253745 -37.40310816
-6.57349143 -17.35253745 -36.40310816
-6.57349143 -17.35253745 -35.40310816
-6.57349143 -17.35253745 -34.40310816
-6.57349143 -17.35253745 -33.40310816
-6.57349143 -17.35253745 -32.40310816
-6.57349143 -17.35253745 -31.40310816
-6.57349143 -17.35253745 -30.40310816
-5.57349143 -18.35253745 -30.40310816
-5.57349143 -17.35253745 -29.40310816
-6.57349143 -17.35253745 -25.40310816
-5.57349143 -18.35253745 -25.40310816
-5.57349143 -17.35253745 -26.40310816
-5.57349143 -18.35253745 -24.40310816
-5.57349143 -18.35253745 -23.40310816
-6.57349143 -17.35253745 -22.40310816
-5.57349143 -18.35253745 -22.40310816
-5.57349143 -17.35253745 -21.40310816
-6.57349143 -16.35253745 -77.40310816
-5.57349143 -17.35253745 -77.40310816
-5.57349143 -16.35253745 -78.40310816
-5.57349143 -17.35253745 -76.40310816
-6.57349143 -16.35253745 -32.40310816
-6.57349143 -16.35253745 -31.40310816
-6.57349143 -16.35253745 -30.40310816
-6.57349143 -16.35253745 -29.40310816
-5.57349143 -17.35253745 -29.40310816
-6.57349143 -16.35253745 -28.40310816
-5.57349143 -17.35253745 -28.40310816
-6.57349143 -16.35253745 -27.40310816
-5.57349143 -17.35253745 -27.40310816
-6.57349143 -16.35253745 -26.40310816
-5.57349143 -17.35253745 -26.40310816
-6.57349143 -16.35253745 -25.40310816
-6.57349143 -16.35253745 -24.40310816
-6.57349143 -16.35253745 -23.40310816
-6.57349143 -16.35253745 -22.40310816
-5.57349143 -16.35253745 -21.40310816
-6.57349143 -15.35253745 -78.40310816
-5.57349143 -16.35253745 -78.40310816
-5.57349143 -15.35253745 -79.40310816
-6.57349143 -15.35253745 -30.40310816
-6.57349143 -15.35253745 -29.40310816
-6.57349143 -15.35253745 -28.40310816
-6.57349143 -15.35253745 -27.40310816
-6.57349143 -15.35253745 -26.40310816
-6.57349143 -15.35253745 -25.40310816
-6.57349143 -15.35253745 -24.40310816
-6.57349143 -15.35253745 -23.40310816
-6.57349143 -15.35253745 -22.40310816
-5.57349143 -15.35253745 -21.40310816
-6.57349143 -14.35253745 -79.40310816
-5.57349143 -15.35253745 -79.40310816
-5.57349143 -14.35253745 -80.40310816
-6.57349143 -14.35253745 -28.40310816
-6.57349143 -14.35253745 -27.40310816
-6.57349143 -14.35253745 -26.40310816
-6.57349143 -14.35253745 -25.40310816
-6.57349143 -14.35253745 -24.40310816
-6.57349143 -14.35253745 -23.40310816
-6.57349143 -14.35253745 -22.40310816
-6.57349143 -14.35253745 -21.40310816
-5.57349143 -15.35253745 -21.40310816
-5.57349143 -14.35253745 -20.40310816
-5.57349143 -14.35253745 -80.40310816
-5.57349143 -13.35253745 -81.40310816
-6.57349143 -13.35253745 -24.40310816
-6.57349143 -13.35253745 -23.40310816
-6.57349143 -13.35253745 -22.40310816
-6.57349143 -13.35253745 -21.40310816
-6.57349143 -13.35253745 -20.40310816
-5.57349143 -14.35253745 -20.40310816
-6.57349143 -13.35253745 -19.40310816
-5.57349143 -14.35253745 -19.40310816
-5.57349143 -13.35253745 -18.40310816
-5.57349143 -13.35253745 -81.40310816
-5.57349143 -12.35253745 -82.40310816
-6.57349143 -12.35253745 -21.40310816
-6.57349143 -12.35253745 -20.40310816
-6.57349143 -12.35253745 -19.40310816
-6.57349143 -12.35253745 -18.40310816
-5.57349143 -13.35253745 -18.40310816
-6.57349143 -12.35253745 -17.40310816
-5.57349143 -13.35253745 -17.40310816
-5.57349143 -12.35253745 -16.40310816
-5.57349143 -12.35253745 -82.40310816
-5.57349143 -11.35253745 -83.40310816
-6.57349143 -11.35253745 -19.40310816
-6.57349143 -11.35253745 -18.40310816
-6.57349143 -11.35253745 -17.40310816
-6.57349143 -11.35253745 -16.40310816
-5.57349143 -12.35253745 -16.40310816
-5.57349143 -11.35253745 -15.40310816
-6.57349143 -10.35253745 -83.40310816
-5.57349143 -11.35253745 -83.40310816
-5.57349143 -10.35253745 -84.40310816
-6.57349143 -10.35253745 -17.40310816
-6.57349143 -10.35253745 -16.40310816
-6.57349143 -10.35253745 -15.40310816
-5.57349143 -11.35253745 -15.40310816
-5.57349143 -10.35253745 -14.40310816
-5.57349143 -9.35253745 -84.40310816
-6.57349143 -9.35253745 -16.40310816
-6.57349143 -9.35253745 -15.40310816
-6.57349143 -9.35253745 -14.40310816
-5.57349143 -10.35253745 -14.40310816
-5.57349143 -9.35253745 -13.40310816
-5.57349143 -8.35253745 -84.40310816
-6.57349143 -8.35253745 -16.40310816
-6.57349143 -8.35253745 -15.40310816
-6.57349143 -8.35253745 -14.40310816
-5.57349143 -8.35253745 -13.40310816
-5.57349143 -8.35253745 -84.40310816
-5.57349143 -7.35253745 -85.40310816
-6.57349143 -7.35253745 -15.40310816
-6.57349143 -7.35253745 -14.40310816
-5.57349143 -7.35253745 -13.40310816
-5.57349143 -6.35253745 -85.40310816
-6.57349143 -6.35253745 -16.40310816
-6.57349143 -6.35253745 -15.40310816
-6.57349143 -6.35253745 -14.40310816
-5.57349143 -6.35253745 -13.40310816
-5.57349143 -5.35253745 -85.40310816
-6.57349143 -5.35253745 -16.40310816
-6.57349143 -5.35253745 -15.40310816
-6.57349143 -5.35253745 -14.40310816
-5.57349143 -5.35253745 -13.40310816
-5.57349143 -4.35253745 -85.40310816
-6.57349143 -4.35253745 -16.40310816
-6.57349143 -4.35253745 -15.40310816
-6.57349143 -4.35253745 -14.40310816
-5.57349143 -4.35253745 -13.40310816
-5.57349143 -3.35253745 -85.40310816
-6.57349143 -3.35253745 -16.40310816
-6.57349143 -3.35253745 -15.40310816
-6.57349143 -3.35253745 -14.40310816
-5.57349143 -3.35253745 -13.40310816
-5.57349143 -2.35253745 -85.40310816
-6.57349143 -2.35253745 -16.40310816
-6.57349143 -2.35253745 -15.40310816
-6.57349143 -2.35253745 -14.40310816
-6.57349143 -2.35253745 -13.40310816
-5.57349143 -3.35253745 -13.40310816
-5.57349143 -2.35253745 -12.40310816
-5.57349143 -1.35253745 -85.40310816
-6.57349143 -1.35253745 -16.40310816
-6.57349143 -1.35253745 -15.40310816
-6.57349143 -1.35253745 -14.40310816
-6.57349143 -1.35253745 -13.40310816
-5.57349143 -1.35253745 -12.40310816
-5.57349143 -0.35253745 -85.40310816
-6.57349143 -0.35253745 -15.40310816
-6.57349143 -0.35253745 -14.40310816
-6.57349143 -0.35253745 -13.40310816
-5.57349143 -0.35253745 -12.40310816
-5.57349143 0.64746255 -85.40310816
-6.57349143 0.64746255 -15.40310816
-6.57349143 0.64746255 -14.40310816
-6.57349143 0.64746255 -13.40310816
-6.57349143 0.64746255 -12.40310816
-5.57349143 -0.35253745 -12.40310816
-5.57349143 0.64746255 -11.40310816
-5.57349143 1.64746255 -85.40310816
-6.57349143 1.64746255 -14.40310816
-6.57349143 1.64746255 -13.40310816
-6.57349143 1.64746255 -12.40310816
-5.57349143 1.64746255 -11.40310816
-6.57349143 2.64746255 -85.40310816
-5.57349143 1.64746255 -85.40310816
-5.57349143 2.64746255 -86.40310816
-6.57349143 2.64746255 -14.40310816
-6.57349143 2.64746255 -13.40310816
-6.57349143 2.64746255 -12.40310816
-5.57349143 2.64746255 -11.40310816
-5.57349143 3.64746255 -86.40310816
-6.57349143 3.64746255 -13.40310816
-6.57349143 3.64746255 -12.40310816
-6.57349143 3.64746255 -11.40310816
-5.57349143 2.64746255 -11.40310816
-5.57349143 3.64746255 -10.40310816
-5.57349143 4.64746255 -86.40310816
-6.57349143 4.64746255 -13.40310816
-6.57349143 4.64746255 -12.40310816
-6.57349143 4.64746255 -11.40310816
-5.57349143 4.64746255 -10.40310816
-5.57349143 5.64746255 -86.40310816
-6.57349143 5.64746255 -12.40310816
-6.57349143 5.64746255 -11.40310816
-5.57349143 5.64746255 -10.40310816
-5.57349143 6.64746255 -86.40310816
-6.57349143 6.64746255 -12.40310816
-6.57349143 6.64746255 -11.40310816
-6.57349143 6.64746255 -10.40310816
-5.57349143 5.64746255 -10.40310816
-5.57349143 6.64746255 -9.40310816
-5.57349143 7.64746255 -86.40310816
-6.57349143 7.64746255 -12.40310816
-6.57349143 7.64746255 -11.40310816
-6.57349143 7.64746255 -10.40310816
-5.57349143 7.64746255 -9.40310816
-5.57349143 8.64746255 -86.40310816
-6.57349143 8.64746255 -12.40310816
-6.57349143 8.64746255 -11.40310816
-6.57349143 8.64746255 -10.40310816
-5.57349143 8.64746255 -9.40310816
-5.57349143 9.64746255 -86.40310816
-6.57349143 9.64746255 -12.40310816
-6.57349143 9.64746255 -11.40310816
-5.57349143 9.64746255 -10.40310816
-5.57349143 9.64746255 -10.40310816
-5.57349143 10.64746255 -86.40310816
-6.57349143 10.64746255 -13.40310816
-6.57349143 10.64746255 -12.40310816
-6.57349143 10.64746255 -11.40310816
-5.57349143 10.64746255 -10.40310816
-5.57349143 11.64746255 -86.40310816
-6.57349143 11.64746255 -13.40310816
-6.57349143 11.64746255 -12.40310816
-5.57349143 11.64746255 -11.40310816
-5.57349143 11.64746255 -11.40310816
-5.57349143 12.64746255 -86.40310816
-6.57349143 12.64746255 -13.40310816
-6.57349143 12.64746255 -12.40310816
-5.57349143 12.64746255 -11.40310816
-5.57349143 13.64746255 -86.40310816
-6.57349143 13.64746255 -14.40310816
-6.57349143 13.64746255 -13.40310816
-5.57349143 13.64746255 -12.40310816
-5.57349143 13.64746255 -12.40310816
-5.57349143 14.64746255 -86.40310816
-6.57349143 14.64746255 -14.40310816
-6.57349143 14.64746255 -13.40310816
-5.57349143 14.64746255 -12.40310816
-5.57349143 15.64746255 -86.40310816
-6.57349143 15.64746255 -15.40310816
-6.57349143 15.64746255 -14.40310816
-5.57349143 15.64746255 -13.40310816
-5.57349143 15.64746255 -13.40310816
-5.57349143 16.64746255 -85.40310816
-5.57349143 16.64746255 -85.40310816
-6.57349143 16.64746255 -15.40310816
-6.57349143 16.64746255 -14.40310816
-5.57349143 16.64746255 -13.40310816
-5.57349143 17.64746255 -85.40310816
-6.57349143 17.64746255 -15.40310816
-5.57349143 17.64746255 -14.40310816
-5.57349143 17.64746255 -14.40310816
-5.57349143 18.64746255 -85.40310816
-6.57349143 18.64746255 -16.40310816
-6.57349143 18.64746255 -15.40310816
-5.57349143 18.64746255 -14.40310816
-5.57349143 19.64746255 -85.40310816
-6.57349143 19.64746255 -16.40310816
-6.57349143 19.64746255 -15.40310816
-5.57349143 19.64746255 -14.40310816
-5.57349143 20.64746255 -85.40310816
