# .PCD v0.7 - Point Cloud Data file format
VERSION 0.7
FIELDS x y z
SIZE 4 4 4
TYPE F F F
COUNT 1 1 1
WIDTH 1286
HEIGHT 1
VIEWPOINT 0 0 0 1 0 0 0
POINTS 1286
DATA ascii
-21.57349143 -13.35253745 32.59689184
-21.57349143 -13.35253745 33.59689184
-20.57349143 -13.35253745 34.59689184
-20.57349143 -13.35253745 34.59689184
-21.57349143 -13.35253745 44.59689184
-20.57349143 -14.35253745 44.59689184
-20.57349143 -13.35253745 43.59689184
-21.57349143 -13.35253745 45.59689184
-20.57349143 -14.35253745 45.59689184
-21.57349143 -13.35253745 46.59689184
-20.57349143 -14.35253745 46.59689184
-21.57349143 -13.35253745 47.59689184
-21.57349143 -13.35253745 48.59689184
-21.57349143 -13.35253745 49.59689184
-21.57349143 -13.35253745 50.59689184
-21.57349143 -13.35253745 51.59689184
-21.57349143 -13.35253745 52.59689184
-21.57349143 -13.35253745 53.59689184
-21.57349143 -13.35253745 54.59689184
-21.57349143 -13.35253745 55.59689184
-21.57349143 -13.35253745 56.59689184
-21.57349143 -13.35253745 57.59689184
-21.57349143 -13.35253745 58.59689184
-21.57349143 -13.35253745 59.59689184
-21.57349143 -13.35253745 60.59689184
-20.57349143 -13.35253745 84.59689184
-21.57349143 -12.35253745 12.59689184
-20.57349143 -13.35253745 12.59689184
-20.57349143 -12.35253745 11.59689184
-21.57349143 -12.35253745 13.59689184
-20.57349143 -13.35253745 13.59689184
-20.57349143 -13.35253745 14.59689184
-20.57349143 -13.35253745 15.59689184
-21.57349143 -12.35253745 32.59689184
-21.57349143 -12.35253745 33.59689184
-20.57349143 -12.35253745 34.59689184
-21.57349143 -12.35253745 42.59689184
-20.57349143 -13.35253745 42.59689184
-20.57349143 -12.35253745 41.59689184
-21.57349143 -12.35253745 43.59689184
-20.57349143 -13.35253745 43.59689184
-21.57349143 -12.35253745 44.59689184
-21.57349143 -12.35253745 45.59689184
-21.57349143 -12.35253745 46.59689184
-21.57349143 -12.35253745 47.59689184
-21.57349143 -12.35253745 48.59689184
-21.57349143 -12.35253745 49.59689184
-21.57349143 -12.35253745 50.59689184
-21.57349143 -12.35253745 51.59689184
-21.57349143 -12.35253745 52.59689184
-21.57349143 -12.35253745 53.59689184
-21.57349143 -12.35253745 54.59689184
-21.57349143 -12.35253745 55.59689184
-21.57349143 -12.35253745 56.59689184
-20.57349143 -13.35253745 84.59689184
-20.57349143 -12.35253745 85.59689184
-20.57349143 -11.35253745 12.59689184
-20.57349143 -11.35253745 13.59689184
-20.57349143 -11.35253745 14.59689184
-20.57349143 -11.35253745 15.59689184
-20.57349143 -11.35253745 16.59689184
-20.57349143 -11.35253745 17.59689184
-20.57349143 -11.35253745 18.59689184
-21.57349143 -11.35253745 19.59689184
-20.57349143 -11.35253745 18.59689184
-21.57349143 -11.35253745 32.59689184
-21.57349143 -11.35253745 33.59689184
-21.57349143 -11.35253745 34.59689184
-20.57349143 -12.35253745 34.59689184
-20.57349143 -11.35253745 35.59689184
-21.57349143 -11.35253745 39.59689184
-20.57349143 -12.35253745 39.59689184
-20.57349143 -11.35253745 38.59689184
-21.57349143 -11.35253745 40.59689184
-20.57349143 -12.35253745 40.59689184
-21.57349143 -11.35253745 41.59689184
-20.57349143 -12.35253745 41.59689184
-21.57349143 -11.35253745 42.59689184
-21.57349143 -11.35253745 43.59689184
-21.57349143 -11.35253745 44.59689184
-21.57349143 -11.35253745 45.59689184
-21.57349143 -11.35253745 46.59689184
-21.57349143 -11.35253745 47.59689184
-21.57349143 -11.35253745 48.59689184
-21.57349143 -11.35253745 49.59689184
-21.57349143 -11.35253745 50.59689184
-21.57349143 -11.35253745 51.59689184
-21.57349143 -11.35253745 52.59689184
-21.57349143 -11.35253745 53.59689184
-21.57349143 -11.35253745 54.59689184
-21.57349143 -11.35253745 55.59689184
-20.57349143 -11.35253745 85.59689184
-21.57349143 -10.35253745 16.59689184
-20.57349143 -11.35253745 16.59689184
-20.57349143 -10.35253745 15.59689184
-20.57349143 -11.35253745 17.59689184
-20.57349143 -11.35253745 18.59689184
-21.57349143 -10.35253745 33.59689184
-21.57349143 -10.35253745 34.59689184
-21.57349143 -10.35253745 35.59689184
-20.57349143 -11.35253745 35.59689184
-21.57349143 -10.35253745 36.59689184
-20.57349143 -11.35253745 36.59689184
-21.57349143 -10.35253745 37.59689184
-20.57349143 -11.35253745 37.59689184
-21.57349143 -10.35253745 38.59689184
-20.57349143 -11.35253745 38.59689184
-21.57349143 -10.35253745 39.59689184
-21.57349143 -10.35253745 40.59689184
-21.57349143 -10.35253745 41.59689184
-21.57349143 -10.35253745 42.59689184
-21.57349143 -10.35253745 43.59689184
-21.57349143 -10.35253745 48.59689184
-21.57349143 -10.35253745 49.59689184
-21.57349143 -10.35253745 50.59689184
-21.57349143 -10.35253745 51.59689184
-21.57349143 -10.35253745 52.59689184
-21.57349143 -10.35253745 53.59689184
-21.57349143 -10.35253745 54.59689184
-21.57349143 -10.35253745 55.59689184
-21.57349143 -10.35253745 56.59689184
-21.57349143 -10.35253745 57.59689184
-21.57349143 -10.35253745 85.59689184
-20.57349143 -11.35253745 85.59689184
-20.57349143 -10.35253745 86.59689184
-20.57349143 -9.35253745 16.59689184
-20.57349143 -9.35253745 17.59689184
-20.57349143 -9.35253745 17.59689184
-21.57349143 -9.35253745 36.59689184
-21.57349143 -9.35253745 37.59689184
-21.57349143 -9.35253745 38.59689184
-21.57349143 -9.35253745 39.59689184
-21.57349143 -9.35253745 50.59689184
-21.57349143 -9.35253745 51.59689184
-21.57349143 -9.35253745 52.59689184
-21.57349143 -9.35253745 53.59689184
-21.57349143 -9.35253745 54.59689184
-21.57349143 -9.35253745 55.59689184
-21.57349143 -9.35253745 56.59689184
-21.57349143 -9.35253745 57.59689184
-21.57349143 -9.35253745 58.59689184
-21.57349143 -9.35253745 59.59689184
-20.57349143 -9.35253745 86.59689184
-20.57349143 -8.35253745 18.59689184
-20.57349143 -8.35253745 19.59689184
-20.57349143 -8.35253745 20.59689184
-20.57349143 -8.35253745 21.59689184
-20.57349143 -8.35253745 22.59689184
-21.57349143 -8.35253745 23.59689184
-20.57349143 -8.35253745 22.59689184
-21.57349143 -8.35253745 51.59689184
-21.57349143 -8.35253745 52.59689184
-21.57349143 -8.35253745 53.59689184
-21.57349143 -8.35253745 54.59689184
-21.57349143 -8.35253745 55.59689184
-21.57349143 -8.35253745 56.59689184
-21.57349143 -8.35253745 57.59689184
-21.57349143 -8.35253745 58.59689184
-21.57349143 -8.35253745 59.59689184
-21.57349143 -8.35253745 86.59689184
-20.57349143 -9.35253745 86.59689184
-20.57349143 -8.35253745 87.59689184
-21.57349143 -7.35253745 11.59689184
-20.57349143 -8.35253745 11.59689184
-20.57349143 -7.35253745 10.59689184
-20.57349143 -8.35253745 12.59689184
-20.57349143 -8.35253745 13.59689184
-20.57349143 -8.35253745 14.59689184
-20.57349143 -8.35253745 15.59689184
-20.57349143 -8.35253745 16.59689184
-20.57349143 -8.35253745 17.59689184
-20.57349143 -8.35253745 18.59689184
-20.57349143 -8.35253745 19.59689184
-20.57349143 -8.35253745 20.59689184
-20.57349143 -8.35253745 21.59689184
-20.57349143 -8.35253745 22.59689184
-20.57349143 -7.35253745 87.59689184
-20.57349143 -6.35253745 11.59689184
-20.57349143 -6.35253745 12.59689184
-20.57349143 -6.35253745 12.59689184
-20.57349143 -7.35253745 87.59689184
-20.57349143 -6.35253745 88.59689184
-20.57349143 -5.35253745 13.59689184
-21.57349143 -5.35253745 14.59689184
-20.57349143 -5.35253745 13.59689184
-21.57349143 -5.35253745 15.59689184
-20.57349143 -5.35253745 88.59689184
-21.57349143 -4.35253745 12.59689184
-20.57349143 -5.35253745 12.59689184
-20.57349143 -4.35253745 11.59689184
-20.57349143 -5.35253745 13.59689184
-20.57349143 -4.35253745 88.59689184
-21.57349143 -3.35253745 10.59689184
-20.57349143 -4.35253745 10.59689184
-20.57349143 -3.35253745 9.59689184
-20.57349143 -4.35253745 11.59689184
-20.57349143 -3.35253745 88.59689184
-20.57349143 -3.35253745 9.59689184
-20.57349143 -2.35253745 8.59689184
-20.57349143 -2.35253745 88.59689184
-20.57349143 -1.35253745 9.59689184
-20.57349143 -1.35253745 10.59689184
-20.57349143 -1.35253745 11.59689184
-20.57349143 -1.35253745 12.59689184
-20.57349143 -1.35253745 13.59689184
-20.57349143 -1.35253745 14.59689184
-20.57349143 -1.35253745 15.59689184
-20.57349143 -1.35253745 16.59689184
-20.57349143 -1.35253745 17.59689184
-20.57349143 -1.35253745 18.59689184
-20.57349143 -1.35253745 19.59689184
-20.57349143 -1.35253745 20.59689184
-20.57349143 -1.35253745 21.59689184
-20.57349143 -1.35253745 22.59689184
-20.57349143 -1.35253745 23.59689184
-20.57349143 -1.35253745 24.59689184
-20.57349143 -1.35253745 25.59689184
-21.57349143 -1.35253745 26.59689184
-20.57349143 -1.35253745 25.59689184
-21.57349143 -1.35253745 27.59689184
-20.57349143 -2.35253745 88.59689184
-20.57349143 -1.35253745 89.59689184
-20.57349143 -0.35253745 26.59689184
-20.57349143 -0.35253745 27.59689184
-20.57349143 -0.35253745 28.59689184
-21.57349143 -0.35253745 29.59689184
-20.57349143 -0.35253745 28.59689184
-21.57349143 -0.35253745 30.59689184
-21.57349143 -0.35253745 31.59689184
-21.57349143 -0.35253745 57.59689184
-21.57349143 -0.35253745 58.59689184
-21.57349143 -0.35253745 59.59689184
-21.57349143 -0.35253745 60.59689184
-21.57349143 -0.35253745 61.59689184
-21.57349143 -0.35253745 62.59689184
-20.57349143 -0.35253745 89.59689184
-20.57349143 0.64746255 29.59689184
-20.57349143 0.64746255 30.59689184
-20.57349143 0.64746255 31.59689184
-20.57349143 0.64746255 32.59689184
-20.57349143 0.64746255 33.59689184
-20.57349143 0.64746255 34.59689184
-20.57349143 0.64746255 35.59689184
-20.57349143 0.64746255 36.59689184
-20.57349143 0.64746255 37.59689184
-20.57349143 0.64746255 38.59689184
-20.57349143 0.64746255 39.59689184
-20.57349143 0.64746255 40.59689184
-20.57349143 0.64746255 41.59689184
-20.57349143 0.64746255 42.59689184
-21.57349143 0.64746255 43.59689184
-20.57349143 0.64746255 42.59689184
-20.57349143 0.64746255 44.59689184
-20.57349143 0.64746255 44.59689184
-20.57349143 0.64746255 45.59689184
-21.57349143 0.64746255 46.59689184
-20.57349143 0.64746255 45.59689184
-21.57349143 0.64746255 47.59689184
-21.57349143 0.64746255 55.59689184
-21.57349143 0.64746255 56.59689184
-21.57349143 0.64746255 57.59689184
-21.57349143 0.64746255 58.59689184
-21.57349143 0.64746255 59.59689184
-21.57349143 0.64746255 60.59689184
-21.57349143 0.64746255 61.59689184
-21.57349143 0.64746255 62.59689184
-21.57349143 0.64746255 63.59689184
-21.57349143 0.64746255 64.59689184
-20.57349143 0.64746255 89.59689184
-20.57349143 1.64746255 43.59689184
-20.57349143 1.64746255 46.59689184
-20.57349143 1.64746255 47.59689184
-21.57349143 1.64746255 48.59689184
-20.57349143 1.64746255 47.59689184
-21.57349143 1.64746255 49.59689184
-21.57349143 1.64746255 53.59689184
-21.57349143 1.64746255 54.59689184
-21.57349143 1.64746255 55.59689184
-21.57349143 1.64746255 56.59689184
-20.57349143 1.64746255 57.59689184
-20.57349143 1.64746255 57.59689184
-20.57349143 1.64746255 58.59689184
-20.57349143 1.64746255 59.59689184
-20.57349143 1.64746255 60.59689184
-20.57349143 1.64746255 61.59689184
-20.57349143 1.64746255 62.59689184
-20.57349143 1.64746255 63.59689184
-21.57349143 1.64746255 64.59689184
-20.57349143 1.64746255 63.59689184
-21.57349143 1.64746255 65.59689184
-21.57349143 1.64746255 66.59689184
-20.57349143 1.64746255 88.59689184
-20.57349143 1.64746255 88.59689184
-20.57349143 1.64746255 88.59689184
-21.57349143 2.64746255 48.59689184
-20.57349143 2.64746255 47.59689184
-21.57349143 2.64746255 49.59689184
-21.57349143 2.64746255 50.59689184
-21.57349143 2.64746255 51.59689184
-21.57349143 2.64746255 52.59689184
-21.57349143 2.64746255 53.59689184
-21.57349143 2.64746255 54.59689184
-20.57349143 2.64746255 55.59689184
-20.57349143 2.64746255 55.59689184
-20.57349143 2.64746255 56.59689184
-20.57349143 2.64746255 64.59689184
-20.57349143 2.64746255 65.59689184
-21.57349143 2.64746255 66.59689184
-20.57349143 2.64746255 65.59689184
-21.57349143 2.64746255 67.59689184
-20.57349143 2.64746255 88.59689184
-21.57349143 3.64746255 46.59689184
-20.57349143 2.64746255 46.59689184
-20.57349143 3.64746255 45.59689184
-21.57349143 3.64746255 47.59689184
-20.57349143 2.64746255 47.59689184
-21.57349143 3.64746255 48.59689184
-21.57349143 3.64746255 49.59689184
-21.57349143 3.64746255 50.59689184
-21.57349143 3.64746255 51.59689184
-21.57349143 3.64746255 52.59689184
-21.57349143 3.64746255 53.59689184
-20.57349143 3.64746255 54.59689184
-20.57349143 3.64746255 54.59689184
-20.57349143 3.64746255 66.59689184
-21.57349143 3.64746255 67.59689184
-20.57349143 3.64746255 66.59689184
-21.57349143 3.64746255 68.59689184
-20.57349143 3.64746255 87.59689184
-20.57349143 3.64746255 87.59689184
-21.57349143 4.64746255 38.59689184
-20.57349143 3.64746255 38.59689184
-20.57349143 4.64746255 37.59689184
-21.57349143 4.64746255 39.59689184
-20.57349143 3.64746255 39.59689184
-20.57349143 3.64746255 40.59689184
-20.57349143 3.64746255 41.59689184
-20.57349143 3.64746255 42.59689184
-20.57349143 3.64746255 43.59689184
-20.57349143 3.64746255 44.59689184
-20.57349143 3.64746255 45.59689184
-21.57349143 4.64746255 51.59689184
-21.57349143 4.64746255 52.59689184
-21.57349143 4.64746255 53.59689184
-20.57349143 4.64746255 54.59689184
-21.57349143 4.64746255 67.59689184
-20.57349143 4.64746255 66.59689184
-20.57349143 4.64746255 86.59689184
-20.57349143 4.64746255 86.59689184
-20.57349143 4.64746255 37.59689184
-20.57349143 5.64746255 36.59689184
-21.57349143 5.64746255 51.59689184
-21.57349143 5.64746255 52.59689184
-21.57349143 5.64746255 53.59689184
-20.57349143 5.64746255 54.59689184
-20.57349143 5.64746255 67.59689184
-21.57349143 5.64746255 68.59689184
-20.57349143 5.64746255 67.59689184
-20.57349143 5.64746255 83.59689184
-20.57349143 5.64746255 83.59689184
-20.57349143 5.64746255 84.59689184
-20.57349143 5.64746255 85.59689184
-21.57349143 6.64746255 36.59689184
-20.57349143 5.64746255 36.59689184
-20.57349143 6.64746255 35.59689184
-21.57349143 6.64746255 51.59689184
-21.57349143 6.64746255 52.59689184
-21.57349143 6.64746255 53.59689184
-20.57349143 6.64746255 54.59689184
-20.57349143 6.64746255 68.59689184
-20.57349143 6.64746255 69.59689184
-20.57349143 6.64746255 70.59689184
-20.57349143 6.64746255 71.59689184
-20.57349143 6.64746255 72.59689184
-20.57349143 6.64746255 73.59689184
-20.57349143 6.64746255 74.59689184
-20.57349143 6.64746255 75.59689184
-20.57349143 6.64746255 76.59689184
-20.57349143 6.64746255 77.59689184
-20.57349143 6.64746255 78.59689184
-20.57349143 6.64746255 79.59689184
-20.57349143 6.64746255 80.59689184
-20.57349143 6.64746255 81.59689184
-20.57349143 6.64746255 82.59689184
-20.57349143 7.64746255 36.59689184
-20.57349143 7.64746255 37.59689184
-20.57349143 7.64746255 37.59689184
-21.57349143 7.64746255 51.59689184
-21.57349143 7.64746255 52.59689184
-20.57349143 7.64746255 53.59689184
-20.57349143 7.64746255 53.59689184
-20.57349143 8.64746255 38.59689184
-20.57349143 8.64746255 39.59689184
-20.57349143 8.64746255 40.59689184
-20.57349143 8.64746255 41.59689184
-20.57349143 8.64746255 42.59689184
-20.57349143 8.64746255 43.59689184
-20.57349143 8.64746255 44.59689184
-20.57349143 8.64746255 45.59689184
-20.57349143 8.64746255 46.59689184
-21.57349143 8.64746255 47.59689184
-20.57349143 8.64746255 46.59689184
-21.57349143 8.64746255 48.59689184
-21.57349143 8.64746255 49.59689184
-21.57349143 8.64746255 50.59689184
-21.57349143 8.64746255 51.59689184
-20.57349143 8.64746255 52.59689184
-20.57349143 8.64746255 52.59689184
-21.57349143 9.64746255 47.59689184
-20.57349143 9.64746255 46.59689184
-21.57349143 9.64746255 48.59689184
-21.57349143 9.64746255 51.59689184
-21.57349143 9.64746255 52.59689184
-20.57349143 8.64746255 52.59689184
-20.57349143 9.64746255 53.59689184
-21.57349143 10.64746255 46.59689184
-20.57349143 9.64746255 46.59689184
-20.57349143 10.64746255 45.59689184
-21.57349143 10.64746255 53.59689184
-20.57349143 9.64746255 53.59689184
-21.57349143 10.64746255 54.59689184
-20.57349143 9.64746255 54.59689184
-20.57349143 10.64746255 55.59689184
-21.57349143 10.64746255 78.59689184
-20.57349143 9.64746255 78.59689184
-20.57349143 10.64746255 77.59689184
-21.57349143 10.64746255 79.59689184
-20.57349143 9.64746255 79.59689184
-20.57349143 10.64746255 80.59689184
-21.57349143 11.64746255 45.59689184
-20.57349143 10.64746255 45.59689184
-20.57349143 11.64746255 44.59689184
-21.57349143 11.64746255 53.59689184
-21.57349143 11.64746255 54.59689184
-20.57349143 11.64746255 55.59689184
-21.57349143 11.64746255 77.59689184
-20.57349143 10.64746255 77.59689184
-20.57349143 11.64746255 76.59689184
-21.57349143 11.64746255 78.59689184
-21.57349143 11.64746255 79.59689184
-20.57349143 11.64746255 80.59689184
-21.57349143 12.64746255 44.59689184
-20.57349143 11.64746255 44.59689184
-20.57349143 12.64746255 43.59689184
-21.57349143 12.64746255 53.59689184
-21.57349143 12.64746255 54.59689184
-20.57349143 12.64746255 55.59689184
-20.57349143 12.64746255 77.59689184
-20.57349143 12.64746255 78.59689184
-20.57349143 12.64746255 79.59689184
-21.57349143 13.64746255 43.59689184
-20.57349143 12.64746255 43.59689184
-20.57349143 13.64746255 42.59689184
-21.57349143 13.64746255 53.59689184
-20.57349143 13.64746255 54.59689184
-20.57349143 13.64746255 54.59689184
-21.57349143 14.64746255 43.59689184
-20.57349143 14.64746255 42.59689184
-21.57349143 14.64746255 53.59689184
-20.57349143 14.64746255 54.59689184
-20.57349143 15.64746255 43.59689184
-20.57349143 15.64746255 44.59689184
-21.57349143 15.64746255 45.59689184
-20.57349143 15.64746255 44.59689184
-21.57349143 15.64746255 52.59689184
-21.57349143 15.64746255 53.59689184
-20.57349143 15.64746255 54.59689184
-20.57349143 16.64746255 45.59689184
-20.57349143 16.64746255 46.59689184
-20.57349143 16.64746255 47.59689184
-21.57349143 16.64746255 48.59689184
-20.57349143 16.64746255 47.59689184
-21.57349143 16.64746255 49.59689184
-21.57349143 16.64746255 50.59689184
-21.57349143 16.64746255 51.59689184
-21.57349143 16.64746255 52.59689184
-20.57349143 16.64746255 53.59689184
-20.57349143 16.64746255 53.59689184
-20.57349143 17.64746255 48.59689184
-20.57349143 17.64746255 49.59689184
-20.57349143 17.64746255 50.59689184
-20.57349143 17.64746255 51.59689184
-20.57349143 17.64746255 52.59689184
-20.57349143 -38.35253745 62.59689184
-19.57349143 -39.35253745 62.59689184
-19.57349143 -38.35253745 61.59689184
-20.57349143 -38.35253745 63.59689184
-19.57349143 -39.35253745 63.59689184
-20.57349143 -38.35253745 64.59689184
-19.57349143 -39.35253745 64.59689184
-20.57349143 -38.35253745 65.59689184
-19.57349143 -39.35253745 65.59689184
-20.57349143 -38.35253745 66.59689184
-19.57349143 -39.35253745 66.59689184
-20.57349143 -38.35253745 67.59689184
-19.57349143 -39.35253745 67.59689184
-20.57349143 -38.35253745 68.59689184
-19.57349143 -39.35253745 68.59689184
-19.57349143 -38.35253745 69.59689184
-20.57349143 -37.35253745 60.59689184
-19.57349143 -38.35253745 60.59689184
-19.57349143 -37.35253745 59.59689184
-20.57349143 -37.35253745 61.59689184
-19.57349143 -38.35253745 61.59689184
-20.57349143 -37.35253745 62.59689184
-20.57349143 -37.35253745 69.59689184
-19.57349143 -38.35253745 69.59689184
-20.57349143 -37.35253745 70.59689184
-19.57349143 -38.35253745 70.59689184
-19.57349143 -37.35253745 71.59689184
-20.57349143 -36.35253745 59.59689184
-19.57349143 -37.35253745 59.59689184
-19.57349143 -36.35253745 58.59689184
-20.57349143 -36.35253745 60.59689184
-20.57349143 -36.35253745 71.59689184
-19.57349143 -37.35253745 71.59689184
-20.57349143 -36.35253745 72.59689184
-19.57349143 -37.35253745 72.59689184
-19.57349143 -36.35253745 73.59689184
-20.57349143 -35.35253745 58.59689184
-19.57349143 -36.35253745 58.59689184
-19.57349143 -35.35253745 57.59689184
-20.57349143 -35.35253745 59.59689184
-20.57349143 -35.35253745 73.59689184
-19.57349143 -36.35253745 73.59689184
-19.57349143 -35.35253745 74.59689184
-20.57349143 -34.35253745 58.59689184
-19.57349143 -34.35253745 57.59689184
-20.57349143 -34.35253745 59.59689184
-20.57349143 -34.35253745 74.59689184
-19.57349143 -35.35253745 74.59689184
-19.57349143 -34.35253745 75.59689184
-20.57349143 -33.35253745 57.59689184
-19.57349143 -34.35253745 57.59689184
-19.57349143 -33.35253745 56.59689184
-20.57349143 -33.35253745 58.59689184
-20.57349143 -33.35253745 59.59689184
-20.57349143 -33.35253745 74.59689184
-19.57349143 -33.35253745 75.59689184
-20.57349143 -32.35253745 57.59689184
-19.57349143 -32.35253745 56.59689184
-20.57349143 -32.35253745 58.59689184
-20.57349143 -32.35253745 59.59689184
-20.57349143 -32.35253745 73.59689184
-20.57349143 -32.35253745 74.59689184
-19.57349143 -32.35253745 75.59689184
-20.57349143 -31.35253745 57.59689184
-19.57349143 -31.35253745 56.59689184
-20.57349143 -31.35253745 58.59689184
-20.57349143 -31.35253745 59.59689184
-20.57349143 -31.35253745 60.59689184
-20.57349143 -31.35253745 71.59689184
-20.57349143 -31.35253745 72.59689184
-19.57349143 -31.35253745 73.59689184
-19.57349143 -31.35253745 73.59689184
-19.57349143 -31.35253745 74.59689184
-19.57349143 -30.35253745 57.59689184
-20.57349143 -30.35253745 58.59689184
-19.57349143 -30.35253745 57.59689184
-20.57349143 -30.35253745 59.59689184
-20.57349143 -30.35253745 60.59689184
-20.57349143 -30.35253745 61.59689184
-20.57349143 -30.35253745 62.59689184
-20.57349143 -30.35253745 63.59689184
-20.57349143 -30.35253745 64.59689184
-20.57349143 -30.35253745 65.59689184
-20.57349143 -30.35253745 66.59689184
-20.57349143 -30.35253745 67.59689184
-20.57349143 -30.35253745 68.59689184
-20.57349143 -30.35253745 69.59689184
-20.57349143 -30.35253745 70.59689184
-19.57349143 -30.35253745 71.59689184
-19.57349143 -30.35253745 71.59689184
-19.57349143 -30.35253745 72.59689184
-19.57349143 -29.35253745 58.59689184
-20.57349143 -29.35253745 59.59689184
-19.57349143 -29.35253745 58.59689184
-20.57349143 -29.35253745 60.59689184
-20.57349143 -29.35253745 61.59689184
-20.57349143 -29.35253745 62.59689184
-20.57349143 -29.35253745 63.59689184
-20.57349143 -29.35253745 64.59689184
-20.57349143 -29.35253745 65.59689184
-20.57349143 -29.35253745 66.59689184
-20.57349143 -29.35253745 67.59689184
-20.57349143 -29.35253745 68.59689184
-19.57349143 -29.35253745 69.59689184
-19.57349143 -29.35253745 69.59689184
-19.57349143 -29.35253745 70.59689184
-19.57349143 -28.35253745 59.59689184
-20.57349143 -28.35253745 60.59689184
-19.57349143 -28.35253745 59.59689184
-20.57349143 -28.35253745 61.59689184
-20.57349143 -28.35253745 62.59689184
-20.57349143 -28.35253745 63.59689184
-20.57349143 -28.35253745 64.59689184
-19.57349143 -28.35253745 65.59689184
-19.57349143 -28.35253745 65.59689184
-19.57349143 -28.35253745 66.59689184
-19.57349143 -28.35253745 67.59689184
-19.57349143 -28.35253745 68.59689184
-19.57349143 -27.35253745 60.59689184
-19.57349143 -27.35253745 61.59689184
-19.57349143 -27.35253745 62.59689184
-19.57349143 -27.35253745 63.59689184
-19.57349143 -27.35253745 64.59689184
-20.57349143 -21.35253745 18.59689184
-19.57349143 -22.35253745 18.59689184
-19.57349143 -21.35253745 17.59689184
-20.57349143 -21.35253745 19.59689184
-19.57349143 -22.35253745 19.59689184
-20.57349143 -21.35253745 20.59689184
-19.57349143 -22.35253745 20.59689184
-20.57349143 -21.35253745 21.59689184
-19.57349143 -22.35253745 21.59689184
-20.57349143 -21.35253745 22.59689184
-19.57349143 -22.35253745 22.59689184
-20.57349143 -21.35253745 23.59689184
-19.57349143 -22.35253745 23.59689184
-20.57349143 -21.35253745 24.59689184
-19.57349143 -22.35253745 24.59689184
-20.57349143 -21.35253745 25.59689184
-19.57349143 -22.35253745 25.59689184
-20.57349143 -21.35253745 26.59689184
-19.57349143 -22.35253745 26.59689184
-20.57349143 -21.35253745 27.59689184
-19.57349143 -22.35253745 27.59689184
-20.57349143 -21.35253745 28.59689184
-19.57349143 -22.35253745 28.59689184
-20.57349143 -21.35253745 29.59689184
-19.57349143 -22.35253745 29.59689184
-20.57349143 -21.35253745 30.59689184
-19.57349143 -22.35253745 30.59689184
-19.57349143 -21.35253745 31.59689184
-20.57349143 -21.35253745 54.59689184
-19.57349143 -22.35253745 54.59689184
-19.57349143 -21.35253745 53.59689184
-20.57349143 -21.35253745 55.59689184
-19.57349143 -22.35253745 55.59689184
-20.57349143 -21.35253745 56.59689184
-19.57349143 -22.35253745 56.59689184
-20.57349143 -21.35253745 57.59689184
-19.57349143 -22.35253745 57.59689184
-20.57349143 -21.35253745 58.59689184
-19.57349143 -22.35253745 58.59689184
-20.57349143 -21.35253745 59.59689184
-19.57349143 -22.35253745 59.59689184
-20.57349143 -21.35253745 60.59689184
-19.57349143 -22.35253745 60.59689184
-19.57349143 -21.35253745 61.59689184
-20.57349143 -20.35253745 13.59689184
-19.57349143 -21.35253745 13.59689184
-19.57349143 -20.35253745 12.59689184
-20.57349143 -20.35253745 14.59689184
-19.57349143 -21.35253745 14.59689184
-19.57349143 -21.35253745 15.59689184
-19.57349143 -21.35253745 16.59689184
-19.57349143 -21.35253745 17.59689184
-20.57349143 -20.35253745 31.59689184
-19.57349143 -21.35253745 31.59689184
-20.57349143 -20.35253745 32.59689184
-19.57349143 -21.35253745 32.59689184
-20.57349143 -20.35253745 33.59689184
-19.57349143 -21.35253745 33.59689184
-20.57349143 -20.35253745 34.59689184
-19.57349143 -21.35253745 34.59689184
-19.57349143 -20.35253745 35.59689184
-20.57349143 -20.35253745 52.59689184
-19.57349143 -21.35253745 52.59689184
-19.57349143 -20.35253745 51.59689184
-20.57349143 -20.35253745 53.59689184
-19.57349143 -21.35253745 53.59689184
-20.57349143 -20.35253745 54.59689184
-20.57349143 -20.35253745 55.59689184
-20.57349143 -20.35253745 56.59689184
-20.57349143 -20.35253745 57.59689184
-20.57349143 -20.35253745 58.59689184
-20.57349143 -20.35253745 59.59689184
-20.57349143 -20.35253745 60.59689184
-20.57349143 -20.35253745 61.59689184
-19.57349143 -21.35253745 61.59689184
-19.57349143 -20.35253745 62.59689184
-19.57349143 -19.35253745 13.59689184
-19.57349143 -19.35253745 14.59689184
-19.57349143 -19.35253745 15.59689184
-19.57349143 -19.35253745 16.59689184
-19.57349143 -19.35253745 17.59689184
-19.57349143 -19.35253745 18.59689184
-19.57349143 -19.35253745 19.59689184
-19.57349143 -19.35253745 20.59689184
-19.57349143 -19.35253745 21.59689184
-19.57349143 -19.35253745 22.59689184
-19.57349143 -19.35253745 23.59689184
-19.57349143 -19.35253745 24.59689184
-20.57349143 -19.35253745 25.59689184
-19.57349143 -19.35253745 24.59689184
-20.57349143 -19.35253745 26.59689184
-20.57349143 -19.35253745 27.59689184
-20.57349143 -19.35253745 28.59689184
-20.57349143 -19.35253745 33.59689184
-20.57349143 -19.35253745 34.59689184
-20.57349143 -19.35253745 35.59689184
-19.57349143 -20.35253745 35.59689184
-19.57349143 -19.35253745 36.59689184
-20.57349143 -19.35253745 49.59689184
-19.57349143 -20.35253745 49.59689184
-19.57349143 -19.35253745 48.59689184
-20.57349143 -19.35253745 50.59689184
-19.57349143 -20.35253745 50.59689184
-20.57349143 -19.35253745 51.59689184
-19.57349143 -20.35253745 51.59689184
-20.57349143 -19.35253745 52.59689184
-20.57349143 -19.35253745 53.59689184
-20.57349143 -19.35253745 54.59689184
-20.57349143 -19.35253745 55.59689184
-20.57349143 -19.35253745 56.59689184
-20.57349143 -19.35253745 57.59689184
-20.57349143 -19.35253745 58.59689184
-20.57349143 -19.35253745 59.59689184
-20.57349143 -19.35253745 60.59689184
-20.57349143 -19.35253745 61.59689184
-19.57349143 -19.35253745 62.59689184
-20.57349143 -18.35253745 23.59689184
-19.57349143 -19.35253745 23.59689184
-19.57349143 -18.35253745 22.59689184
-19.57349143 -19.35253745 24.59689184
-20.57349143 -18.35253745 34.59689184
-20.57349143 -18.35253745 35.59689184
-20.57349143 -18.35253745 36.59689184
-19.57349143 -19.35253745 36.59689184
-19.57349143 -18.35253745 37.59689184
-20.57349143 -18.35253745 47.59689184
-19.57349143 -19.35253745 47.59689184
-19.57349143 -18.35253745 46.59689184
-20.57349143 -18.35253745 48.59689184
-19.57349143 -19.35253745 48.59689184
-20.57349143 -18.35253745 49.59689184
-20.57349143 -18.35253745 50.59689184
-20.57349143 -18.35253745 51.59689184
-20.57349143 -18.35253745 52.59689184
-20.57349143 -18.35253745 57.59689184
-20.57349143 -18.35253745 58.59689184
-20.57349143 -18.35253745 59.59689184
-20.57349143 -18.35253745 60.59689184
-20.57349143 -18.35253745 61.59689184
-20.57349143 -18.35253745 62.59689184
-19.57349143 -19.35253745 62.59689184
-19.57349143 -18.35253745 63.59689184
-19.57349143 -17.35253745 23.59689184
-19.57349143 -17.35253745 24.59689184
-19.57349143 -17.35253745 25.59689184
-19.57349143 -17.35253745 26.59689184
-19.57349143 -17.35253745 27.59689184
-20.57349143 -17.35253745 28.59689184
-19.57349143 -17.35253745 27.59689184
-20.57349143 -17.35253745 35.59689184
-20.57349143 -17.35253745 36.59689184
-19.57349143 -17.35253745 37.59689184
-20.57349143 -17.35253745 44.59689184
-19.57349143 -18.35253745 44.59689184
-19.57349143 -17.35253745 43.59689184
-20.57349143 -17.35253745 45.59689184
-19.57349143 -18.35253745 45.59689184
-20.57349143 -17.35253745 46.59689184
-19.57349143 -18.35253745 46.59689184
-20.57349143 -17.35253745 47.59689184
-20.57349143 -17.35253745 48.59689184
-20.57349143 -17.35253745 49.59689184
-20.57349143 -17.35253745 50.59689184
-20.57349143 -17.35253745 51.59689184
-20.57349143 -17.35253745 58.59689184
-20.57349143 -17.35253745 59.59689184
-20.57349143 -17.35253745 60.59689184
-20.57349143 -17.35253745 61.59689184
-20.57349143 -17.35253745 62.59689184
-20.57349143 -17.35253745 63.59689184
-19.57349143 -18.35253745 63.59689184
-19.57349143 -17.35253745 64.59689184
-20.57349143 -17.35253745 67.59689184
-19.57349143 -18.35253745 67.59689184
-19.57349143 -17.35253745 66.59689184
-20.57349143 -17.35253745 68.59689184
-19.57349143 -18.35253745 68.59689184
-19.57349143 -18.35253745 69.59689184
-19.57349143 -18.35253745 70.59689184
-19.57349143 -18.35253745 71.59689184
-19.57349143 -18.35253745 72.59689184
-19.57349143 -18.35253745 73.59689184
-19.57349143 -18.35253745 74.59689184
-19.57349143 -18.35253745 75.59689184
-19.57349143 -18.35253745 76.59689184
-20.57349143 -17.35253745 77.59689184
-19.57349143 -18.35253745 77.59689184
-20.57349143 -17.35253745 78.59689184
-19.57349143 -18.35253745 78.59689184
-19.57349143 -17.35253745 79.59689184
-20.57349143 -16.35253745 22.59689184
-19.57349143 -17.35253745 22.59689184
-19.57349143 -16.35253745 21.59689184
-19.57349143 -17.35253745 23.59689184
-19.57349143 -17.35253745 24.59689184
-19.57349143 -17.35253745 25.59689184
-19.57349143 -17.35253745 26.59689184
-19.57349143 -17.35253745 27.59689184
-20.57349143 -16.35253745 35.59689184
-20.57349143 -16.35253745 36.59689184
-19.57349143 -16.35253745 37.59689184
-20.57349143 -16.35253745 43.59689184
-19.57349143 -17.35253745 43.59689184
-19.57349143 -16.35253745 42.59689184
-20.57349143 -16.35253745 44.59689184
-20.57349143 -16.35253745 45.59689184
-20.57349143 -16.35253745 46.59689184
-20.57349143 -16.35253745 47.59689184
-20.57349143 -16.35253745 48.59689184
-20.57349143 -16.35253745 49.59689184
-20.57349143 -16.35253745 50.59689184
-20.57349143 -16.35253745 58.59689184
-20.57349143 -16.35253745 59.59689184
-20.57349143 -16.35253745 60.59689184
-20.57349143 -16.35253745 61.59689184
-20.57349143 -16.35253745 62.59689184
-20.57349143 -16.35253745 63.59689184
-20.57349143 -16.35253745 64.59689184
-19.57349143 -17.35253745 64.59689184
-20.57349143 -16.35253745 65.59689184
-19.57349143 -17.35253745 65.59689184
-19.57349143 -17.35253745 66.59689184
-19.57349143 -17.35253745 79.59689184
-19.57349143 -17.35253745 80.59689184
-19.57349143 -17.35253745 81.59689184
-19.57349143 -16.35253745 82.59689184
-19.57349143 -15.35253745 22.59689184
-19.57349143 -15.35253745 23.59689184
-19.57349143 -15.35253745 24.59689184
-19.57349143 -15.35253745 25.59689184
-19.57349143 -15.35253745 26.59689184
-19.57349143 -15.35253745 27.59689184
-19.57349143 -15.35253745 28.59689184
-20.57349143 -15.35253745 29.59689184
-19.57349143 -15.35253745 28.59689184
-20.57349143 -15.35253745 35.59689184
-20.57349143 -15.35253745 36.59689184
-20.57349143 -15.35253745 37.59689184
-19.57349143 -16.35253745 37.59689184
-19.57349143 -15.35253745 38.59689184
-20.57349143 -15.35253745 41.59689184
-19.57349143 -16.35253745 41.59689184
-19.57349143 -15.35253745 40.59689184
-20.57349143 -15.35253745 42.59689184
-19.57349143 -16.35253745 42.59689184
-20.57349143 -15.35253745 43.59689184
-20.57349143 -15.35253745 44.59689184
-20.57349143 -15.35253745 45.59689184
-20.57349143 -15.35253745 46.59689184
-20.57349143 -15.35253745 47.59689184
-20.57349143 -15.35253745 48.59689184
-20.57349143 -15.35253745 49.59689184
-20.57349143 -15.35253745 59.59689184
-20.57349143 -15.35253745 60.59689184
-20.57349143 -15.35253745 61.59689184
-20.57349143 -15.35253745 62.59689184
-20.57349143 -15.35253745 63.59689184
-19.57349143 -16.35253745 82.59689184
-20.57349143 -15.35253745 83.59689184
-19.57349143 -16.35253745 83.59689184
-19.57349143 -15.35253745 84.59689184
-20.57349143 -14.35253745 15.59689184
-19.57349143 -15.35253745 15.59689184
-19.57349143 -14.35253745 14.59689184
-19.57349143 -15.35253745 16.59689184
-19.57349143 -15.35253745 17.59689184
-19.57349143 -15.35253745 18.59689184
-19.57349143 -15.35253745 19.59689184
-19.57349143 -15.35253745 20.59689184
-19.57349143 -15.35253745 21.59689184
-19.57349143 -15.35253745 22.59689184
-19.57349143 -15.35253745 23.59689184
-19.57349143 -15.35253745 24.59689184
-19.57349143 -15.35253745 25.59689184
-19.57349143 -15.35253745 26.59689184
-19.57349143 -15.35253745 27.59689184
-19.57349143 -15.35253745 28.59689184
-20.57349143 -14.35253745 35.59689184
-20.57349143 -14.35253745 36.59689184
-20.57349143 -14.35253745 37.59689184
-19.57349143 -14.35253745 38.59689184
-20.57349143 -14.35253745 39.59689184
-19.57349143 -15.35253745 39.59689184
-19.57349143 -14.35253745 38.59689184
-20.57349143 -14.35253745 40.59689184
-19.57349143 -15.35253745 40.59689184
-20.57349143 -14.35253745 41.59689184
-20.57349143 -14.35253745 42.59689184
-20.57349143 -14.35253745 43.59689184
-20.57349143 -14.35253745 44.59689184
-20.57349143 -14.35253745 45.59689184
-20.57349143 -14.35253745 46.59689184
-19.57349143 -14.35253745 84.59689184
-20.57349143 -13.35253745 13.59689184
-19.57349143 -14.35253745 13.59689184
-19.57349143 -13.35253745 12.59689184
-20.57349143 -13.35253745 14.59689184
-19.57349143 -14.35253745 14.59689184
-20.57349143 -13.35253745 15.59689184
-20.57349143 -13.35253745 34.59689184
-20.57349143 -13.35253745 35.59689184
-20.57349143 -13.35253745 36.59689184
-20.57349143 -13.35253745 37.59689184
-20.57349143 -13.35253745 38.59689184
-19.57349143 -14.35253745 38.59689184
-20.57349143 -13.35253745 39.59689184
-20.57349143 -13.35253745 40.59689184
-20.57349143 -13.35253745 41.59689184
-20.57349143 -13.35253745 42.59689184
-20.57349143 -13.35253745 43.59689184
-20.57349143 -13.35253745 84.59689184
-19.57349143 -14.35253745 84.59689184
-19.57349143 -13.35253745 85.59689184
-20.57349143 -12.35253745 11.59689184
-19.57349143 -13.35253745 11.59689184
-19.57349143 -12.35253745 10.59689184
-19.57349143 -13.35253745 12.59689184
-20.57349143 -12.35253745 34.59689184
-20.57349143 -12.35253745 35.59689184
-20.57349143 -12.35253745 36.59689184
-20.57349143 -12.35253745 37.59689184
-20.57349143 -12.35253745 38.59689184
-20.57349143 -12.35253745 39.59689184
-20.57349143 -12.35253745 40.59689184
-20.57349143 -12.35253745 41.59689184
-19.57349143 -12.35253745 85.59689184
-19.57349143 -11.35253745 11.59689184
-19.57349143 -11.35253745 12.59689184
-19.57349143 -11.35253745 13.59689184
-19.57349143 -11.35253745 14.59689184
-19.57349143 -11.35253745 15.59689184
-19.57349143 -11.35253745 16.59689184
-19.57349143 -11.35253745 17.59689184
-20.57349143 -11.35253745 18.59689184
-19.57349143 -11.35253745 17.59689184
-20.57349143 -11.35253745 35.59689184
-20.57349143 -11.35253745 36.59689184
-20.57349143 -11.35253745 37.59689184
-20.57349143 -11.35253745 38.59689184
-20.57349143 -11.35253745 85.59689184
-19.57349143 -12.35253745 85.59689184
-19.57349143 -11.35253745 86.59689184
-20.57349143 -10.35253745 15.59689184
-19.57349143 -11.35253745 15.59689184
-19.57349143 -10.35253745 14.59689184
-19.57349143 -11.35253745 16.59689184
-19.57349143 -11.35253745 17.59689184
-19.57349143 -10.35253745 86.59689184
-19.57349143 -9.35253745 15.59689184
-19.57349143 -9.35253745 16.59689184
-20.57349143 -9.35253745 17.59689184
-19.57349143 -9.35253745 16.59689184
-20.57349143 -9.35253745 86.59689184
-19.57349143 -10.35253745 86.59689184
-19.57349143 -9.35253745 87.59689184
-19.57349143 -8.35253745 17.59689184
-19.57349143 -8.35253745 18.59689184
-19.57349143 -8.35253745 19.59689184
-19.57349143 -8.35253745 20.59689184
-19.57349143 -8.35253745 21.59689184
-20.57349143 -8.35253745 22.59689184
-19.57349143 -8.35253745 21.59689184
-19.57349143 -8.35253745 87.59689184
-19.57349143 -8.35253745 11.59689184
-19.57349143 -7.35253745 10.59689184
-19.57349143 -8.35253745 12.59689184
-19.57349143 -8.35253745 13.59689184
-19.57349143 -8.35253745 14.59689184
-19.57349143 -8.35253745 15.59689184
-19.57349143 -8.35253745 16.59689184
-19.57349143 -8.35253745 17.59689184
-19.57349143 -8.35253745 18.59689184
-19.57349143 -8.35253745 19.59689184
-19.57349143 -8.35253745 20.59689184
-19.57349143 -8.35253745 21.59689184
-19.57349143 -7.35253745 87.59689184
-19.57349143 -6.35253745 11.59689184
-19.57349143 -6.35253745 12.59689184
-19.57349143 -6.35253745 12.59689184
-19.57349143 -7.35253745 87.59689184
-19.57349143 -6.35253745 88.59689184
-20.57349143 -5.35253745 13.59689184
-19.57349143 -5.35253745 12.59689184
-19.57349143 -5.35253745 88.59689184
-20.57349143 -4.35253745 11.59689184
-19.57349143 -5.35253745 11.59689184
-19.57349143 -4.35253745 10.59689184
-19.57349143 -5.35253745 12.59689184
-19.57349143 -4.35253745 88.59689184
-19.57349143 -4.35253745 10.59689184
-19.57349143 -3.35253745 9.59689184
-19.57349143 -3.35253745 88.59689184
-19.57349143 -3.35253745 9.59689184
-19.57349143 -2.35253745 8.59689184
-19.57349143 -2.35253745 88.59689184
-19.57349143 -1.35253745 9.59689184
-19.57349143 -1.35253745 10.59689184
-19.57349143 -1.35253745 11.59689184
-19.57349143 -1.35253745 12.59689184
-19.57349143 -1.35253745 13.59689184
-19.57349143 -1.35253745 14.59689184
-19.57349143 -1.35253745 15.59689184
-19.57349143 -1.35253745 16.59689184
-19.57349143 -1.35253745 17.59689184
-19.57349143 -1.35253745 18.59689184
-19.57349143 -1.35253745 19.59689184
-19.57349143 -1.35253745 20.59689184
-19.57349143 -1.35253745 21.59689184
-19.57349143 -1.35253745 22.59689184
-19.57349143 -1.35253745 23.59689184
-19.57349143 -1.35253745 24.59689184
-20.57349143 -1.35253745 25.59689184
-19.57349143 -1.35253745 24.59689184
-19.57349143 -2.35253745 88.59689184
-19.57349143 -1.35253745 89.59689184
-20.57349143 -0.35253745 19.59689184
-19.57349143 -1.35253745 19.59689184
-19.57349143 -0.35253745 18.59689184
-19.57349143 -0.35253745 20.59689184
-19.57349143 -0.35253745 25.59689184
-20.57349143 -0.35253745 26.59689184
-19.57349143 -0.35253745 25.59689184
-20.57349143 -0.35253745 27.59689184
-20.57349143 -0.35253745 28.59689184
-19.57349143 -0.35253745 89.59689184
-19.57349143 0.64746255 19.59689184
-19.57349143 0.64746255 26.59689184
-19.57349143 0.64746255 27.59689184
-19.57349143 0.64746255 28.59689184
-19.57349143 0.64746255 29.59689184
-19.57349143 0.64746255 30.59689184
-19.57349143 0.64746255 31.59689184
-19.57349143 0.64746255 32.59689184
-19.57349143 0.64746255 33.59689184
-19.57349143 0.64746255 34.59689184
-19.57349143 0.64746255 35.59689184
-19.57349143 0.64746255 36.59689184
-19.57349143 0.64746255 37.59689184
-19.57349143 0.64746255 38.59689184
-19.57349143 0.64746255 39.59689184
-19.57349143 0.64746255 40.59689184
-20.57349143 0.64746255 41.59689184
-19.57349143 0.64746255 40.59689184
-20.57349143 0.64746255 42.59689184
-20.57349143 0.64746255 44.59689184
-20.57349143 0.64746255 45.59689184
-19.57349143 0.64746255 89.59689184
-19.57349143 1.64746255 41.59689184
-19.57349143 1.64746255 42.59689184
-19.57349143 1.64746255 43.59689184
-19.57349143 1.64746255 44.59689184
-19.57349143 1.64746255 45.59689184
-19.57349143 1.64746255 46.59689184
-20.57349143 1.64746255 47.59689184
-19.57349143 1.64746255 46.59689184
-20.57349143 1.64746255 57.59689184
-20.57349143 1.64746255 58.59689184
-20.57349143 1.64746255 59.59689184
-20.57349143 1.64746255 60.59689184
-20.57349143 1.64746255 61.59689184
-20.57349143 1.64746255 62.59689184
-20.57349143 1.64746255 63.59689184
-19.57349143 1.64746255 88.59689184
-19.57349143 1.64746255 88.59689184
-20.57349143 2.64746255 46.59689184
-19.57349143 1.64746255 46.59689184
-19.57349143 2.64746255 45.59689184
-20.57349143 2.64746255 47.59689184
-20.57349143 2.64746255 55.59689184
-20.57349143 2.64746255 56.59689184
-20.57349143 2.64746255 57.59689184
-20.57349143 2.64746255 58.59689184
-20.57349143 2.64746255 59.59689184
-20.57349143 2.64746255 60.59689184
-20.57349143 2.64746255 61.59689184
-20.57349143 2.64746255 62.59689184
-20.57349143 2.64746255 63.59689184
-20.57349143 2.64746255 64.59689184
-20.57349143 2.64746255 65.59689184
-19.57349143 2.64746255 88.59689184
-20.57349143 3.64746255 44.59689184
-19.57349143 2.64746255 44.59689184
-19.57349143 3.64746255 43.59689184
-20.57349143 3.64746255 45.59689184
-19.57349143 2.64746255 45.59689184
-20.57349143 3.64746255 54.59689184
-20.57349143 3.64746255 55.59689184
-20.57349143 3.64746255 56.59689184
-20.57349143 3.64746255 57.59689184
-20.57349143 3.64746255 58.59689184
-20.57349143 3.64746255 59.59689184
-19.57349143 3.64746255 60.59689184
-19.57349143 3.64746255 60.59689184
-19.57349143 3.64746255 61.59689184
-20.57349143 3.64746255 62.59689184
-19.57349143 3.64746255 61.59689184
-20.57349143 3.64746255 63.59689184
-20.57349143 3.64746255 64.59689184
-20.57349143 3.64746255 65.59689184
-20.57349143 3.64746255 66.59689184
-19.57349143 3.64746255 87.59689184
-19.57349143 3.64746255 87.59689184
-19.57349143 3.64746255 38.59689184
-19.57349143 4.64746255 37.59689184
-19.57349143 3.64746255 39.59689184
-19.57349143 3.64746255 40.59689184
-19.57349143 3.64746255 41.59689184
-19.57349143 3.64746255 42.59689184
-19.57349143 3.64746255 43.59689184
-20.57349143 4.64746255 54.59689184
-20.57349143 4.64746255 55.59689184
-20.57349143 4.64746255 56.59689184
-20.57349143 4.64746255 57.59689184
-19.57349143 4.64746255 58.59689184
-19.57349143 4.64746255 58.59689184
-19.57349143 4.64746255 59.59689184
-19.57349143 4.64746255 62.59689184
-19.57349143 4.64746255 63.59689184
-19.57349143 4.64746255 64.59689184
-20.57349143 4.64746255 65.59689184
-19.57349143 4.64746255 64.59689184
-20.57349143 4.64746255 66.59689184
-19.57349143 4.64746255 86.59689184
-19.57349143 4.64746255 86.59689184
-20.57349143 5.64746255 36.59689184
-19.57349143 4.64746255 36.59689184
-19.57349143 5.64746255 35.59689184
-19.57349143 4.64746255 37.59689184
-20.57349143 5.64746255 54.59689184
-20.57349143 5.64746255 55.59689184
-20.57349143 5.64746255 56.59689184
-19.57349143 5.64746255 57.59689184
-19.57349143 5.64746255 57.59689184
-19.57349143 5.64746255 65.59689184
-19.57349143 5.64746255 66.59689184
-20.57349143 5.64746255 67.59689184
-19.57349143 5.64746255 66.59689184
-19.57349143 5.64746255 83.59689184
-19.57349143 5.64746255 83.59689184
-19.57349143 5.64746255 84.59689184
-19.57349143 5.64746255 85.59689184
-20.57349143 6.64746255 35.59689184
-19.57349143 5.64746255 35.59689184
-19.57349143 6.64746255 34.59689184
-20.57349143 6.64746255 54.59689184
-20.57349143 6.64746255 55.59689184
-19.57349143 6.64746255 56.59689184
-19.57349143 6.64746255 56.59689184
-19.57349143 6.64746255 67.59689184
-19.57349143 6.64746255 68.59689184
-19.57349143 6.64746255 69.59689184
-19.57349143 6.64746255 70.59689184
-19.57349143 6.64746255 71.59689184
-19.57349143 6.64746255 72.59689184
-19.57349143 6.64746255 73.59689184
-19.57349143 6.64746255 74.59689184
-19.57349143 6.64746255 75.59689184
-19.57349143 6.64746255 76.59689184
-19.57349143 6.64746255 77.59689184
-19.57349143 6.64746255 78.59689184
-19.57349143 6.64746255 79.59689184
-19.57349143 6.64746255 80.59689184
-19.57349143 6.64746255 81.59689184
-19.57349143 6.64746255 82.59689184
-19.57349143 7.64746255 35.59689184
-19.57349143 7.64746255 36.59689184
-20.57349143 7.64746255 37.59689184
-19.57349143 7.64746255 36.59689184
-20.57349143 7.64746255 53.59689184
-20.57349143 7.64746255 54.59689184
-19.57349143 7.64746255 55.59689184
-19.57349143 7.64746255 55.59689184
-19.57349143 8.64746255 37.59689184
-19.57349143 8.64746255 38.59689184
-19.57349143 8.64746255 39.59689184
-19.57349143 8.64746255 40.59689184
-19.57349143 8.64746255 41.59689184
-19.57349143 8.64746255 42.59689184
-19.57349143 8.64746255 43.59689184
-20.57349143 8.64746255 44.59689184
-19.57349143 8.64746255 43.59689184
-20.57349143 8.64746255 45.59689184
-20.57349143 8.64746255 46.59689184
-20.57349143 8.64746255 52.59689184
-20.57349143 8.64746255 53.59689184
-19.57349143 8.64746255 54.59689184
-19.57349143 8.64746255 54.59689184
-19.57349143 9.64746255 44.59689184
-19.57349143 9.64746255 45.59689184
-20.57349143 9.64746255 46.59689184
-19.57349143 9.64746255 45.59689184
-20.57349143 9.64746255 53.59689184
-20.57349143 9.64746255 54.59689184
-19.57349143 8.64746255 54.59689184
-19.57349143 9.64746255 55.59689184
-20.57349143 10.64746255 45.59689184
-19.57349143 9.64746255 45.59689184
-19.57349143 10.64746255 44.59689184
-20.57349143 10.64746255 55.59689184
-19.57349143 9.64746255 55.59689184
-19.57349143 10.64746255 56.59689184
-20.57349143 10.64746255 74.59689184
-19.57349143 9.64746255 74.59689184
-19.57349143 10.64746255 73.59689184
-20.57349143 10.64746255 75.59689184
-19.57349143 9.64746255 75.59689184
-20.57349143 10.64746255 76.59689184
-19.57349143 9.64746255 76.59689184
-20.57349143 10.64746255 77.59689184
-19.57349143 9.64746255 77.59689184
-19.57349143 9.64746255 78.59689184
-19.57349143 9.64746255 79.59689184
-19.57349143 10.64746255 80.59689184
-19.57349143 11.64746255 44.59689184
-20.57349143 11.64746255 55.59689184
-20.57349143 11.64746255 56.59689184
-19.57349143 10.64746255 56.59689184
-19.57349143 11.64746255 57.59689184
-20.57349143 11.64746255 73.59689184
-19.57349143 10.64746255 73.59689184
-19.57349143 11.64746255 72.59689184
-20.57349143 11.64746255 74.59689184
-20.57349143 11.64746255 75.59689184
-20.57349143 11.64746255 76.59689184
-19.57349143 11.64746255 80.59689184
-19.57349143 11.64746255 44.59689184
-19.57349143 12.64746255 43.59689184
-20.57349143 12.64746255 55.59689184
-19.57349143 12.64746255 56.59689184
-19.57349143 12.64746255 56.59689184
-19.57349143 12.64746255 73.59689184
-19.57349143 12.64746255 74.59689184
-19.57349143 12.64746255 75.59689184
-19.57349143 12.64746255 76.59689184
-19.57349143 12.64746255 77.59689184
-19.57349143 12.64746255 78.59689184
-19.57349143 12.64746255 79.59689184
-20.57349143 13.64746255 42.59689184
-19.57349143 12.64746255 42.59689184
-19.57349143 13.64746255 41.59689184
-19.57349143 12.64746255 43.59689184
-20.57349143 13.64746255 54.59689184
-19.57349143 13.64746255 55.59689184
-19.57349143 13.64746255 55.59689184
-19.57349143 14.64746255 42.59689184
-19.57349143 14.64746255 42.59689184
-20.57349143 14.64746255 54.59689184
-19.57349143 14.64746255 55.59689184
-19.57349143 15.64746255 43.59689184
-19.57349143 15.64746255 44.59689184
-19.57349143 15.64746255 44.59689184
-20.57349143 15.64746255 54.59689184
-20.57349143 15.64746255 55.59689184
-19.57349143 14.64746255 55.59689184
-19.57349143 15.64746255 56.59689184
-19.57349143 16.64746255 45.59689184
-19.57349143 16.64746255 46.59689184
-20.57349143 16.64746255 47.59689184
-19.57349143 16.64746255 46.59689184
-20.57349143 16.64746255 53.59689184
-20.57349143 16.64746255 54.59689184
-19.57349143 16.64746255 55.59689184
-19.57349143 16.64746255 55.59689184
-19.57349143 17.64746255 47.59689184
-19.57349143 17.64746255 48.59689184
-19.57349143 17.64746255 49.59689184
-20.57349143 17.64746255 50.59689184
-19.57349143 17.64746255 49.59689184
-19.57349143 17.64746255 51.59689184
-19.57349143 17.64746255 51.59689184
-19.57349143 17.64746255 52.59689184
-19.57349143 17.64746255 53.59689184
-19.57349143 17.64746255 54.59689184
-19.57349143 18.64746255 50.59689184
-19.57349143 -39.35253745 61.59689184
-18.57349143 -40.35253745 61.59689184
-18.57349143 -39.35253745 60.59689184
-19.57349143 -39.35253745 62.59689184
-18.57349143 -40.35253745 62.59689184
-19.57349143 -39.35253745 63.59689184
